# .PCD v0.7 - Point Cloud Data file format
VERSION 0.7
FIELDS x y z rgb
SIZE 4 4 4 4
TYPE F F F F
COUNT 1 1 1 1
WIDTH 889
HEIGHT 1
VIEWPOINT 0 0 0 1 0 0 0
POINTS 889
DATA ascii
-0.914176542 -5.723785762 -1.798699195 2.304890747e-38
-0.9497490657 -5.720895261 -1.79958832 2.304890747e-38
-0.9801303527 -5.687665247 -1.790993448 2.304890747e-38
-1.008796066 -5.646757328 -1.780027578 2.31411031e-38
-1.047941918 -5.664878754 -1.787733325 2.304890747e-38
-1.078552973 -5.63676682 -1.780916702 2.31411031e-38
-1.113674946 -5.632853638 -1.781805827 2.31411031e-38
-1.149744421 -5.633400467 -1.784176826 2.304890747e-38
-1.180944336 -5.610351668 -1.779138453 2.304890747e-38
-1.217371141 -5.612333583 -1.782102202 2.31411031e-38
-1.252617575 -5.608486711 -1.783287701 2.31411031e-38
-1.287862603 -5.604418463 -1.784473201 2.31411031e-38
-1.320250002 -5.588045448 -1.781805827 2.304890747e-38
-1.352259736 -5.570558183 -1.778842078 2.31411031e-38
-1.390803433 -5.579763634 -1.784473201 2.295671184e-38
-1.421227253 -5.55632027 -1.779731203 2.295671184e-38
-1.44971946 -5.526247495 -1.77291458 2.31411031e-38
-1.483600586 -5.517248154 -1.77291458 2.295671184e-38
-1.51666486 -5.505278784 -1.772025456 2.286451621e-38
-1.553787098 -5.507818607 -1.775878329 2.295671184e-38
-1.588083079 -5.50001624 -1.776471079 2.295671184e-38
-1.616659807 -5.472765473 -1.770839956 2.286451621e-38
-1.647447774 -5.453600146 -1.767876207 2.268012495e-38
-1.672143922 -5.415099737 -1.758688586 2.268012495e-38
-1.71051179 -5.42113227 -1.764023334 2.277232058e-38
-1.738176649 -5.393263184 -1.758392211 2.277232058e-38
-1.763175795 -5.358001647 -1.750390089 2.277232058e-38
-1.793585879 -5.339839226 -1.74801909 2.249573369e-38
-1.823839551 -5.321505617 -1.745648091 2.249573369e-38
-1.855511798 -5.307509879 -1.744758966 2.268012495e-38
-1.888684565 -5.297823987 -1.745351716 2.249573369e-38
-1.937467241 -5.331016943 -1.76017046 2.277232058e-38
-1.959525931 -5.290368988 -1.750686464 2.258792932e-38
-1.984531328 -5.258587702 -1.744166216 2.31411031e-38
-2.028411688 -5.276621898 -1.754242962 2.277232058e-38
-2.041949687 -5.216051441 -1.738238718 2.258792932e-38
-2.084524605 -5.230040062 -1.747129965 2.286451621e-38
-2.112985827 -5.208301077 -1.744166216 2.277232058e-38
-2.148912751 -5.20494872 -1.74742634 2.268012495e-38
-2.174891192 -5.177576613 -1.742684342 2.286451621e-38
-2.21337422 -5.17994284 -1.74801909 2.286451621e-38
-2.234457685 -5.141738141 -1.739720593 2.268012495e-38
-2.264420635 -5.124436644 -1.738535093 2.286451621e-38
-2.295429582 -5.109574756 -1.738238718 2.277232058e-38
-1.51862806 -3.325689435 -1.134523071 2.304890747e-38
-1.515687254 -3.266061601 -1.117333328 2.249573369e-38
-1.529996038 -3.24460619 -1.113184079 2.231134243e-38
-1.542448246 -3.219653284 -1.107849331 2.212695117e-38
-1.559667128 -3.204975696 -1.106071082 2.212695117e-38
-1.573801805 -3.184214801 -1.102218209 2.258792932e-38
-1.591596455 -3.171083836 -1.101032709 2.258792932e-38
-1.607121014 -3.15359979 -1.098365335 2.240353806e-38
-1.635218224 -3.160644665 -1.104292833 2.231134243e-38
-1.663018 -3.166617271 -1.109923956 2.249573369e-38
-1.688706101 -3.168153027 -1.114073204 2.258792932e-38
-1.735832525 -3.208974467 -1.132152072 2.304890747e-38
-2.679189847 -4.881118954 -1.727865597 2.166597302e-38
-2.705836629 -4.858747025 -1.725790973 2.203475554e-38
-2.735598403 -4.842052859 -1.725790973 2.194255991e-38
-2.769531152 -4.832634162 -1.728458347 2.212695117e-38
-2.806810875 -4.828761049 -1.733200345 2.231134243e-38
-2.829596503 -4.799929368 -1.729051097 2.231134243e-38
-2.846253557 -4.761163185 -1.72134535 2.295671184e-38
-2.873433612 -4.740342326 -1.72015985 2.295671184e-38
-2.902965795 -4.723435717 -1.720456225 2.304890747e-38
-2.930378413 -4.703102736 -1.7195671 2.31411031e-38
-2.964791251 -4.693916083 -1.722827224 2.286451621e-38
-2.989931958 -4.670005715 -1.7207526 2.295671184e-38
-3.018010391 -4.65077076 -1.720456225 2.304890747e-38
-3.036518885 -4.617003783 -1.714825102 2.304890747e-38
-3.060553599 -4.591927331 -1.712454103 2.295671184e-38
-3.085998736 -4.56910438 -1.710972229 2.304890747e-38
-3.110200316 -4.544565873 -1.708897604 2.304890747e-38
-3.144013223 -4.53402975 -1.712157728 2.304890747e-38
-3.164087833 -4.503712271 -1.70800848 2.304890747e-38
-3.203292741 -4.500553194 -1.714232352 2.31411031e-38
-3.216324143 -4.460671469 -1.706526605 2.304890747e-38
-3.248140374 -4.447022497 -1.708897604 2.31411031e-38
-3.261164442 -4.407814116 -1.701488232 2.304890747e-38
-3.291585381 -4.39230668 -1.703266482 2.31411031e-38
-3.316741823 -4.36974496 -1.702377357 2.304890747e-38
-3.354551237 -4.363698206 -1.70800848 2.295671184e-38
-3.367181975 -4.32494637 -1.700895482 2.295671184e-38
-3.391290631 -4.301204346 -1.699709983 2.295671184e-38
-3.435496176 -4.302705296 -1.70860123 2.31411031e-38
-3.466035846 -4.286743244 -1.710675854 2.304890747e-38
-3.493483635 -4.266873312 -1.711268604 2.31411031e-38
-3.507407715 -4.230652294 -1.705341106 2.286451621e-38
-3.529616125 -4.204662603 -1.703562856 2.304890747e-38
-3.555349005 -4.182926134 -1.703562856 2.295671184e-38
-3.570980185 -4.149449628 -1.698820858 2.286451621e-38
-3.591354144 -4.121699806 -1.696449859 2.295671184e-38
-3.627949695 -4.112477862 -1.701784607 2.295671184e-38
-3.647389204 -4.083728887 -1.699117233 2.295671184e-38
-3.664050445 -4.052062819 -1.69526436 2.295671184e-38
-3.681750528 -4.021755302 -1.692004236 2.304890747e-38
-3.721290151 -4.015200033 -1.698820858 2.304890747e-38
-3.736054416 -3.981843663 -1.694375235 2.31411031e-38
-3.753838616 -3.951920018 -1.691411486 2.277232058e-38
-3.793904402 -3.945334582 -1.698524483 2.286451621e-38
-3.820039727 -3.924034388 -1.699413608 2.286451621e-38
-3.846726818 -3.903242173 -1.700599108 2.286451621e-38
-3.867231467 -3.876185033 -1.699117233 2.277232058e-38
-3.895693337 -3.857086943 -1.701191857 2.286451621e-38
-3.916555432 -3.830439653 -1.700006358 2.295671184e-38
-3.936550404 -3.803018077 -1.698524483 2.286451621e-38
-3.559062535 -3.396363457 -1.526627048 2.332549436e-38
-3.579140252 -3.373806416 -1.526330673 2.323329873e-38
-3.627733574 -3.377814969 -1.538185669 2.341768999e-38
-3.656123787 -3.362603861 -1.541445793 2.332549436e-38
-4.02237107 -3.654145139 -1.686373113 2.286451621e-38
-4.033343219 -3.619189864 -1.681631115 2.258792932e-38
-4.060477452 -3.598807975 -1.683705739 2.268012495e-38
-4.078889783 -3.570680188 -1.682223864 2.258792932e-38
-4.102889682 -3.547459362 -1.683112989 2.268012495e-38
-4.118768958 -3.517255981 -1.68074199 2.249573369e-38
-4.144653369 -3.495611977 -1.682520239 2.240353806e-38
-4.188773137 -3.489064075 -1.691707861 2.258792932e-38
-4.201989407 -3.456622378 -1.688447737 2.240353806e-38
-4.222378453 -3.430172179 -1.688151362 2.249573369e-38
-4.24185617 -3.403004285 -1.687558612 2.258792932e-38
-4.269394363 -3.38225027 -1.690225986 2.268012495e-38
-4.304359792 -3.367170838 -1.695857109 2.268012495e-38
-4.330986087 -3.345367066 -1.698228108 2.268012495e-38
-4.340040162 -3.310041885 -1.693782485 2.258792932e-38
-4.354164885 -3.278753474 -1.691411486 2.277232058e-38
-4.344308938 -3.229752034 -1.679852865 2.258792932e-38
-4.364044543 -3.203035057 -1.679852865 2.268012495e-38
-4.405270969 -3.191887947 -1.688151362 2.277232058e-38
-4.41933535 -3.160908303 -1.686076738 2.268012495e-38
-4.438647126 -3.133732268 -1.686076738 2.268012495e-38
-4.455441046 -3.104800121 -1.685187613 2.258792932e-38
-4.468112536 -3.073073804 -1.682816614 2.258792932e-38
-4.454485321 -3.023608302 -1.670665244 2.286451621e-38
-4.491997955 -3.00897583 -1.677778241 2.240353806e-38
-4.504798905 -2.977670266 -1.675703617 2.268012495e-38
-4.535784136 -2.958321282 -1.680445615 2.286451621e-38
-4.540197148 -2.921648409 -1.675407242 2.268012495e-38
-4.555619665 -2.892199603 -1.674518117 2.268012495e-38
-4.57247068 -2.863685465 -1.674221743 2.258792932e-38
-4.592393424 -2.837081286 -1.675110867 2.268012495e-38
-4.599927896 -2.802885895 -1.671554369 2.277232058e-38
-3.949042286 -2.373175785 -1.42971246 2.194255991e-38
-3.953669953 -2.343057207 -1.426155961 2.166597302e-38
-3.97539365 -2.323090658 -1.428823335 2.175816865e-38
-3.999503517 -2.304375974 -1.432379834 2.185036428e-38
-4.680419422 -2.658578169 -1.670368869 2.31411031e-38
-4.702477348 -2.633075873 -1.672443493 2.286451621e-38
-4.725234489 -2.607864345 -1.674814492 2.277232058e-38
-4.048139218 -2.201878426 -1.430008835 2.286451621e-38
-4.03042774 -2.160303983 -1.419042964 2.092840798e-38
-4.054586128 -2.141331307 -1.422895837 2.203475554e-38
-4.049009257 -2.106714321 -1.41637559 2.157377739e-38
-4.05251026 -2.077038583 -1.413115466 2.175816865e-38
-4.052389499 -2.04567779 -1.408669843 2.277232058e-38
-4.321431547 -2.14832158 -1.497582309 2.350988562e-38
-4.688809062 -2.295184902 -1.619985138 2.350988562e-38
-4.673476361 -2.217005989 -1.605166394 2.350988562e-38
-0.4663817715 0.7446756993 -0.272664897 2.350988562e-38
-0.4607998267 0.745898295 -0.2720721472 2.350988562e-38
-0.4557413472 0.9919641426 -0.338756497 2.350988562e-38
-0.4390246269 0.9712440066 -0.330754375 2.323329873e-38
-0.4551754199 1.023662729 -0.3476477437 2.350988562e-38
-0.4485030931 1.025561311 -0.3473513688 2.350988562e-38
-2.278127564 5.578293169 -1.869829169 2.350988562e-38
-1.545884389 3.993795519 -1.328944998 2.323329873e-38
-1.538653308 4.04873726 -1.344060117 2.341768999e-38
-1.512780359 4.055417521 -1.343170993 2.341768999e-38
-2.066009545 5.64401483 -1.86508717 2.323329873e-38
-2.024238172 5.636810252 -1.858566923 2.31411031e-38
-1.983902351 5.632909636 -1.853232175 2.31411031e-38
-1.964577317 5.689211978 -1.867754544 2.332549436e-38
-1.921670953 5.677638173 -1.860048797 2.332549436e-38
-1.889503177 5.697481128 -1.862716171 2.332549436e-38
-1.854508521 5.708967648 -1.862716171 2.332549436e-38
-1.816259655 5.710227673 -1.859456048 2.332549436e-38
-1.784311065 5.731295446 -1.862716171 2.332549436e-38
-1.741596828 5.717467996 -1.854714049 2.332549436e-38
-1.70484619 5.722554708 -1.8529358 2.332549436e-38
-1.671837695 5.740243497 -1.855306799 2.341768999e-38
-1.629525999 5.725591624 -1.847304677 2.341768999e-38
-1.594619548 5.736402605 -1.847601052 2.341768999e-38
-1.558641196 5.743313824 -1.846711927 2.341768999e-38
-1.525571888 5.761078598 -1.849379301 2.350988562e-38
-1.482790649 5.741664173 -1.84019168 2.341768999e-38
-1.449164489 5.757137583 -1.842266304 2.350988562e-38
-1.411992498 5.758500365 -1.839895305 2.350988562e-38
-1.374636662 5.758695041 -1.837227931 2.350988562e-38
-1.33970819 5.768881877 -1.837820681 2.350988562e-38
-0.4031171858 5.862713361 -1.823594686 2.350988562e-38
-0.3663013135 5.851731594 -1.819445438 2.350988562e-38
-0.3300121418 5.84719414 -1.817370813 2.350988562e-38
-0.2938404239 5.843385786 -1.815592564 2.350988562e-38
-0.2581911133 5.849849471 -1.817074439 2.350988562e-38
-0.1868410266 5.866896206 -1.821520062 2.350988562e-38
-0.1508143684 5.866977442 -1.821223687 2.350988562e-38
-0.114905852 5.872566822 -1.822705561 2.350988562e-38
-0.07856250975 5.850241668 -1.815592564 2.350988562e-38
-0.4293345083 5.723326103 -1.849353995 2.350988562e-38
-0.3572222091 5.698715471 -1.839846536 2.350988562e-38
-0.3223025408 5.70175036 -1.840153228 2.350988562e-38
-0.2865450278 5.688410982 -1.835246153 2.350988562e-38
-0.2518044061 5.693865624 -1.836472922 2.350988562e-38
-0.2170800606 5.701010199 -1.838313075 2.350988562e-38
-0.1825813066 5.717456038 -1.84322015 2.350988562e-38
-0.1476189278 5.723226168 -1.844753611 2.350988562e-38
-0.113060186 5.752572951 -1.853954378 2.350988562e-38
0.7518867909 5.58815872 -1.816844621 2.350988562e-38
0.7881515509 5.597577711 -1.821445004 2.350988562e-38
0.8234522244 5.59922809 -1.823591849 2.341768999e-38
0.8563503022 5.584661955 -1.820524927 2.341768999e-38
0.8916512602 5.585881724 -1.822671773 2.341768999e-38
0.9268435904 5.585939329 -1.824511926 2.341768999e-38
0.9620701624 5.585775155 -1.826352079 2.341768999e-38
0.993648778 5.564775036 -1.821445004 2.332549436e-38
1.031582105 5.579164142 -1.828192232 2.341768999e-38
1.059537976 5.540009177 -1.817458005 2.323329873e-38
1.092957304 5.530602434 -1.816537929 2.323329873e-38
1.127823136 5.528455064 -1.81807139 2.323329873e-38
1.156432615 5.496282583 -1.8097907 2.31411031e-38
1.191345504 5.494664552 -1.811630853 2.304890747e-38
1.22711158 5.496540562 -1.814697775 2.295671184e-38
1.262732369 5.497256531 -1.817458005 2.304890747e-38
1.293813874 5.47828916 -1.813777699 2.295671184e-38
1.33189269 5.488746655 -1.819911543 2.304890747e-38
1.355420552 5.439833861 -1.806417086 2.304890747e-38
1.389952154 5.436025463 -1.807950547 2.295671184e-38
1.427626709 5.443966742 -1.813471007 2.295671184e-38
1.465203802 5.450730548 -1.818684774 2.304890747e-38
1.495841369 5.431543518 -1.81531116 2.31411031e-38
1.528107157 5.418598651 -1.814084391 2.304890747e-38
1.556047078 5.390830855 -1.807950547 2.286451621e-38
1.596643168 5.406741121 -1.816537929 2.295671184e-38
1.631164064 5.401398358 -1.81807139 2.304890747e-38
1.666240953 5.397654274 -1.820218235 2.304890747e-38
1.695034121 5.373712976 -1.815617852 2.295671184e-38
1.72242883 5.345998274 -1.8097907 2.295671184e-38
1.763824621 5.361549067 -1.818684774 2.304890747e-38
1.7942654 5.343407131 -1.816231236 2.304890747e-38
1.826092613 5.329595872 -1.81531116 2.295671184e-38
1.860016154 5.321884898 -1.816537929 2.295671184e-38
1.893594231 5.313061574 -1.817458005 2.31411031e-38
1.9287592 5.308499404 -1.819911543 2.31411031e-38
1.958981604 5.290316775 -1.817764697 2.304890747e-38
1.986701657 5.26572962 -1.813471007 2.304890747e-38
2.027168888 5.274763266 -1.82083162 2.304890747e-38
2.053252015 5.2462713 -1.81531116 2.304890747e-38
2.081528318 5.223847834 -1.811937546 2.31411031e-38
2.12677853 5.24361224 -1.823285157 2.295671184e-38
2.156007513 5.223425391 -1.82083162 2.304890747e-38
2.18912288 5.212730741 -1.821751696 2.31411031e-38
2.209101044 5.171191246 -1.811937546 2.323329873e-38
2.257098354 5.195077057 -1.82512531 2.295671184e-38
2.28239355 5.166329225 -1.819911543 2.31411031e-38
2.320290021 5.166119553 -1.824818618 2.304890747e-38
2.35471205 5.157846194 -1.826965464 2.31411031e-38
2.388318623 5.14761788 -1.828498925 2.295671184e-38
2.406870681 5.10531676 -1.818684774 2.323329873e-38
2.439795628 5.093886068 -1.819911543 2.323329873e-38
2.477251418 5.091658143 -1.824511926 2.31411031e-38
2.512241539 5.084041986 -1.827272156 2.31411031e-38
2.536132272 5.054069383 -1.822058388 2.31411031e-38
2.566663619 5.037564751 -1.821751696 2.304890747e-38
2.599274394 5.025102799 -1.822978465 2.31411031e-38
2.626076658 5.001474979 -1.820218235 2.31411031e-38
2.666563674 5.003747033 -1.826965464 2.323329873e-38
2.693593644 4.98059339 -1.824511926 2.304890747e-38
2.730971926 4.97648837 -1.829112309 2.31411031e-38
2.75867755 4.954648186 -1.827272156 2.31411031e-38
2.790899227 4.940942945 -1.828498925 2.31411031e-38
2.821163745 4.923725298 -1.828498925 2.304890747e-38
2.844626558 4.894801223 -1.824205234 2.295671184e-38
2.874123655 4.876434797 -1.823898542 2.304890747e-38
2.89324793 4.840733676 -1.817151313 2.295671184e-38
2.931775332 4.837541732 -1.822671773 2.31411031e-38
2.968877255 4.831625846 -1.827272156 2.31411031e-38
2.998467666 4.813318203 -1.827272156 2.304890747e-38
3.031502691 4.800462744 -1.829419001 2.304890747e-38
3.049611554 4.764135387 -1.822671773 2.304890747e-38
3.086039066 4.756512281 -1.826965464 2.304890747e-38
3.11673521 4.739873003 -1.82788554 2.304890747e-38
3.141009544 4.713531335 -1.82512531 2.295671184e-38
3.166676127 4.689436911 -1.823285157 2.304890747e-38
3.205602708 4.68484316 -1.829112309 2.304890747e-38
3.226695796 4.654134855 -1.824818618 2.304890747e-38
3.25573938 4.635027475 -1.82512531 2.286451621e-38
3.279703206 4.60875943 -1.822671773 2.304890747e-38
3.314599577 4.597813907 -1.826352079 2.295671184e-38
3.34780085 4.584307323 -1.829112309 2.31411031e-38
3.368508081 4.553731647 -1.82512531 2.304890747e-38
3.427205004 4.574109859 -1.841686689 2.31411031e-38
3.442548156 4.536314404 -1.834939461 2.286451621e-38
3.496999018 4.5498201 -1.849047302 2.31411031e-38
3.465216136 4.451666838 -1.817764697 2.286451621e-38
3.500126027 4.440038125 -1.821751696 2.286451621e-38
3.526116055 4.41699047 -1.821138312 2.286451621e-38
3.553750196 4.396011674 -1.821445004 2.295671184e-38
3.596935171 4.394009247 -1.829725693 2.295671184e-38
3.620791527 4.368192175 -1.828192232 2.295671184e-38
3.660375955 4.361203328 -1.834632769 2.286451621e-38
3.68706689 4.338661585 -1.834632769 2.286451621e-38
3.702444629 4.302969664 -1.829112309 2.277232058e-38
3.719399244 4.269405871 -1.824511926 2.286451621e-38
3.741748174 4.242220788 -1.822671773 2.268012495e-38
3.78926263 4.243320003 -1.833099308 2.286451621e-38
3.789695093 4.191748122 -1.82083162 2.277232058e-38
3.828839241 4.183160353 -1.827272156 2.286451621e-38
3.857022291 4.162380897 -1.828498925 2.286451621e-38
3.87011666 4.125447084 -1.822671773 2.277232058e-38
3.907155227 4.11404572 -1.828192232 2.286451621e-38
3.934304012 4.092052798 -1.829112309 2.295671184e-38
3.961993806 4.07056359 -1.830339078 2.304890747e-38
3.996916414 4.056346306 -1.834939461 2.304890747e-38
4.001564658 4.011529323 -1.825738695 2.277232058e-38
4.040982542 4.00163472 -1.832485923 2.295671184e-38
4.053893042 3.965449744 -1.827272156 2.286451621e-38
4.085677581 3.947776054 -1.83064577 2.295671184e-38
4.109823768 3.922632492 -1.83064577 2.304890747e-38
4.142818338 3.905829339 -1.834632769 2.304890747e-38
4.166009528 3.879687289 -1.834326077 2.295671184e-38
4.17992931 3.845030745 -1.830032386 2.304890747e-38
4.195694357 3.812270005 -1.826658771 2.295671184e-38
4.216173574 3.783910993 -1.825432003 2.31411031e-38
4.250707846 3.768071876 -1.830339078 2.304890747e-38
4.288070495 3.754459034 -1.836472922 2.304890747e-38
4.304547202 3.722473929 -1.833712692 2.295671184e-38
4.325135588 3.694137163 -1.832792615 2.304890747e-38
4.361544043 3.679189572 -1.838619767 2.295671184e-38
4.378918046 3.648093743 -1.836472922 2.304890747e-38
4.387254769 3.609666557 -1.83064577 2.31411031e-38
4.418185119 3.589881488 -1.834326077 2.304890747e-38
4.440871419 3.563300106 -1.834632769 2.304890747e-38
4.459667766 3.533619936 -1.833406 2.295671184e-38
4.488761961 3.512054565 -1.836472922 2.286451621e-38
4.508720601 3.483282116 -1.835859538 2.304890747e-38
4.536819648 3.460747005 -1.838619767 2.304890747e-38
4.564051349 3.437425399 -1.841073305 2.295671184e-38
4.604151935 3.423554749 -1.84874061 2.304890747e-38
4.627373594 3.396929491 -1.849660687 2.31411031e-38
4.635798352 3.359536092 -1.844753611 2.295671184e-38
4.661743642 3.334904634 -1.846900457 2.304890747e-38
4.674343454 3.300747669 -1.843833535 2.31411031e-38
4.68748076 3.267106091 -1.841073305 2.31411031e-38
4.698028933 3.231809418 -1.837392999 2.304890747e-38
4.731945077 3.212545218 -1.842913458 2.295671184e-38
4.764219676 3.191926559 -1.847820534 2.31411031e-38
4.784509262 3.163158688 -1.848127226 2.323329873e-38
4.790275851 3.124901319 -1.842913458 2.304890747e-38
4.804557553 3.0923591 -1.841073305 2.31411031e-38
4.821834457 3.061800246 -1.840459921 2.304890747e-38
4.836497438 3.029630013 -1.83892646 2.304890747e-38
4.86876085 3.008402168 -1.844140227 2.295671184e-38
4.900945333 2.986892138 -1.849353995 2.31411031e-38
4.914285593 2.953822221 -1.847513841 2.31411031e-38
4.941323951 2.92895173 -1.850887456 2.295671184e-38
4.960846123 2.899537789 -1.85150084 2.31411031e-38
4.959576513 2.858113429 -1.844446919 2.31411031e-38
4.995226797 2.837972071 -1.851194148 2.295671184e-38
5.020020208 2.8114543 -1.853954378 2.304890747e-38
5.011344792 2.766339627 -1.844446919 2.304890747e-38
5.038257434 2.740996859 -1.848127226 2.304890747e-38
5.039881519 2.701936079 -1.842606766 2.295671184e-38
5.0698311 2.678074163 -1.847513841 2.332549436e-38
5.09798846 2.653067381 -1.851807532 2.295671184e-38
5.09892545 2.613921058 -1.846287072 2.304890747e-38
5.115717828 2.583014434 -1.846593765 2.31411031e-38
5.143402276 2.557509268 -1.850887456 2.31411031e-38
5.165836806 2.529250138 -1.853340993 2.304890747e-38
5.150392404 2.482627142 -1.842300074 2.332549436e-38
5.185306681 2.460362662 -1.849353995 2.31411031e-38
5.202892787 2.429708111 -1.850274071 2.31411031e-38
5.217703253 2.397738023 -1.850274071 2.31411031e-38
5.209767922 2.355482464 -1.842300074 2.323329873e-38
5.231080198 2.32656594 -1.844753611 2.332549436e-38
5.265313943 2.3031982 -1.851807532 2.323329873e-38
5.277598276 2.270095299 -1.851194148 2.332549436e-38
5.299317773 2.241006316 -1.853954378 2.31411031e-38
5.311210765 2.207717458 -1.853340993 2.323329873e-38
5.331706107 2.177966402 -1.855794531 2.323329873e-38
5.34231953 2.144147103 -1.854874454 2.323329873e-38
5.365115467 2.11516693 -1.858248068 2.31411031e-38
5.370892058 2.07945814 -1.855794531 2.323329873e-38
5.379991484 2.045111011 -1.854567762 2.323329873e-38
5.419191404 2.022043619 -1.863768528 2.332549436e-38
5.423452403 1.985808689 -1.861008298 2.332549436e-38
5.425681526 1.94895417 -1.857634684 2.332549436e-38
5.451003866 1.920370123 -1.862235067 2.332549436e-38
5.460885119 1.886265737 -1.861621683 2.323329873e-38
5.465143897 1.850281058 -1.859168145 2.31411031e-38
5.481814512 1.818510867 -1.861008298 2.31411031e-38
5.4838173 1.781899454 -1.857941376 2.323329873e-38
5.507345694 1.75225796 -1.862235067 2.323329873e-38
5.522537475 1.719847583 -1.863768528 2.323329873e-38
5.550285419 1.691200685 -1.86959568 2.323329873e-38
5.543226814 1.651948051 -1.863768528 2.31411031e-38
5.560569153 1.620034226 -1.866222066 2.332549436e-38
5.553011609 1.580932901 -1.860394914 2.323329873e-38
5.559856455 1.546065501 -1.859474837 2.31411031e-38
5.572912517 1.512919234 -1.860701606 2.31411031e-38
5.592211524 1.48137701 -1.86407522 2.332549436e-38
5.568019922 1.438465163 -1.853034301 2.31411031e-38
5.607200228 1.411943171 -1.863155144 2.332549436e-38
5.604665338 1.374790447 -1.859474837 2.332549436e-38
5.644471859 1.347891522 -1.869902372 2.295671184e-38
5.626676817 1.307201403 -1.861314991 2.332549436e-38
5.635520155 1.272861852 -1.861621683 2.323329873e-38
5.636716364 1.236831013 -1.859474837 2.332549436e-38
5.645130232 1.202419777 -1.85978153 2.323329873e-38
5.647741252 1.166796412 -1.858248068 2.323329873e-38
5.663193858 1.133802203 -1.861008298 2.323329873e-38
5.679388303 1.100843349 -1.86407522 2.323329873e-38
5.702875236 1.069131438 -1.86959568 2.323329873e-38
5.702771962 1.032931655 -1.867448835 2.332549436e-38
5.712752929 0.9985762157 -1.868675603 2.323329873e-38
5.730974087 0.9655603543 -1.872662602 2.332549436e-38
5.721758236 0.9279396453 -1.867755527 2.332549436e-38
5.732986959 0.8936937484 -1.86959568 2.323329873e-38
5.729890647 0.8572325078 -1.86683545 2.323329873e-38
5.723736517 0.8204378046 -1.863155144 2.332549436e-38
5.736206799 0.7863363159 -1.865608681 2.323329873e-38
5.749417573 0.7522361241 -1.868368911 2.323329873e-38
5.766203542 0.7184741208 -1.87235591 2.323329873e-38
5.742147186 0.6797231782 -1.863155144 2.31411031e-38
5.75377682 0.6453259242 -1.865608681 2.323329873e-38
5.768039777 0.6111123561 -1.868982296 2.323329873e-38
5.776416454 0.5761811825 -1.870515757 2.332549436e-38
5.778895425 0.5406382527 -1.870209064 2.323329873e-38
5.777362949 0.5047552305 -1.868675603 2.31411031e-38
5.789838184 0.4700667183 -1.871742525 2.323329873e-38
5.795460893 0.4347456895 -1.872662602 2.323329873e-38
5.804666272 0.3996348481 -1.874809448 2.323329873e-38
5.800359504 0.3635937337 -1.872662602 2.332549436e-38
5.792028074 0.3274056643 -1.869288988 2.332549436e-38
5.778718309 0.2910941217 -1.864381913 2.31411031e-38
5.782297405 0.255715196 -1.864995297 2.31411031e-38
5.795171028 0.220665467 -1.868675603 2.31411031e-38
5.796415913 0.1851028121 -1.868675603 2.323329873e-38
5.797442567 0.1495331882 -1.868675603 2.323329873e-38
5.79825095 0.1139579344 -1.868675603 2.332549436e-38
5.809309972 0.07851989065 -1.872049218 2.31411031e-38
5.80873062 0.04286613288 -1.871742525 2.332549436e-38
5.798414406 0.007210605089 -1.868368911 2.31411031e-38
5.805012077 -0.0284005287 -1.870515757 2.31411031e-38
5.811390793 -0.06409235489 -1.872662602 2.332549436e-38
5.821356486 -0.09992887073 -1.876036216 2.31411031e-38
5.806360493 -0.1353135324 -1.871435833 2.31411031e-38
5.794955561 -0.1706299953 -1.868062219 2.31411031e-38
5.801409159 -0.2064547668 -1.870515757 2.323329873e-38
5.805739053 -0.2422857765 -1.87235591 2.31411031e-38
5.784178012 -0.2769486236 -1.865915374 2.31411031e-38
5.794725293 -0.3131020542 -1.869902372 2.31411031e-38
5.803146034 -0.349280952 -1.873275987 2.31411031e-38
5.804692527 -0.3851338625 -1.874502755 2.323329873e-38
5.76994337 -0.4184030127 -1.86407522 2.31411031e-38
5.780551742 -0.4548441187 -1.868368911 2.31411031e-38
5.784290853 -0.4908677383 -1.870515757 2.31411031e-38
5.76410807 -0.52479682 -1.864995297 2.31411031e-38
5.766463514 -0.5607075365 -1.86683545 2.31411031e-38
5.76954183 -0.5967648227 -1.868982296 2.31411031e-38
5.767663818 -0.6323622998 -1.86959568 2.31411031e-38
5.786366775 -0.6703690138 -1.876956293 2.323329873e-38
5.76230385 -0.7034388017 -1.870515757 2.323329873e-38
5.761655434 -0.7392669183 -1.871742525 2.323329873e-38
5.82398581 -0.7836173273 -1.893517672 2.295671184e-38
5.76251728 -0.8113754138 -1.87511614 2.31411031e-38
5.754605257 -0.8463028159 -1.874196063 2.31411031e-38
5.760593859 -0.8833276449 -1.87787637 2.323329873e-38
5.739086961 -0.9161067802 -1.872662602 2.31411031e-38
5.728662943 -0.9505249193 -1.871129141 2.31411031e-38
5.737730751 -0.9882423482 -1.876036216 2.31411031e-38
5.719378148 -1.02125478 -1.872049218 2.323329873e-38
5.72142768 -1.057886497 -1.874809448 2.31411031e-38
5.706415122 -1.09136345 -1.872049218 2.323329873e-38
5.69774372 -1.125987755 -1.871435833 2.323329873e-38
5.682334127 -1.159214975 -1.868675603 2.323329873e-38
5.696536905 -1.198566663 -1.875729524 2.31411031e-38
5.684424425 -1.232488975 -1.874196063 2.31411031e-38
5.664678781 -1.264648709 -1.870209064 2.31411031e-38
5.667944212 -1.301939719 -1.873889371 2.323329873e-38
5.671891195 -1.33953709 -1.87787637 2.323329873e-38
5.658940349 -1.373191689 -1.876342909 2.31411031e-38
5.661490929 -1.410649912 -1.880023215 2.304890747e-38
5.663794468 -1.448191031 -1.883703521 2.31411031e-38
5.631784976 -1.476880193 -1.876036216 2.323329873e-38
5.623536171 -1.511655457 -1.876342909 2.31411031e-38
5.597637348 -1.541583435 -1.870822449 2.332549436e-38
5.606394546 -1.581067761 -1.876956293 2.323329873e-38
5.601160134 -1.61675799 -1.878489754 2.295671184e-38
5.586570262 -1.649747794 -1.876956293 2.31411031e-38
5.581809436 -1.685646265 -1.878796446 2.323329873e-38
5.562266814 -1.717056389 -1.875729524 2.323329873e-38
5.54890328 -1.750294524 -1.874809448 2.31411031e-38
5.548930593 -1.787811657 -1.878489754 2.304890747e-38
5.521581813 -1.816471663 -1.872969294 2.31411031e-38
5.505820722 -1.848802343 -1.871435833 2.323329873e-38
5.505178098 -1.886252785 -1.87511614 2.31411031e-38
5.488109565 -1.918112218 -1.873275987 2.304890747e-38
5.47085753 -1.949833277 -1.871435833 2.31411031e-38
5.461474362 -1.984340228 -1.87235591 2.304890747e-38
5.457229081 -2.020788515 -1.87511614 2.304890747e-38
5.439383819 -2.052219469 -1.873275987 2.31411031e-38
5.426689242 -2.085556268 -1.873275987 2.304890747e-38
5.412017665 -2.118120764 -1.872662602 2.295671184e-38
5.407761231 -2.154811644 -1.875729524 2.295671184e-38
5.391791694 -2.186879252 -1.874809448 2.286451621e-38
5.379151565 -2.220284645 -1.87511614 2.295671184e-38
5.336467278 -2.241086908 -1.864995297 2.304890747e-38
5.326992201 -2.275658252 -1.866528758 2.295671184e-38
5.326896353 -2.314369712 -1.871435833 2.295671184e-38
5.305630316 -2.343934327 -1.868982296 2.286451621e-38
5.285070541 -2.373715186 -1.86683545 2.31411031e-38
5.293784057 -2.416771776 -1.87511614 2.304890747e-38
5.268494516 -2.444401248 -1.871435833 2.304890747e-38
5.249953053 -2.475058585 -1.870209064 2.295671184e-38
5.236384397 -2.50804741 -1.870822449 2.295671184e-38
5.230311466 -2.54471061 -1.874196063 2.304890747e-38
5.205212507 -2.57211705 -1.870822449 2.295671184e-38
5.186780176 -2.602726555 -1.869902372 2.295671184e-38
5.170712507 -2.634503044 -1.869902372 2.304890747e-38
5.152759347 -2.665305759 -1.869288988 2.295671184e-38
5.129566672 -2.693332539 -1.86683545 2.304890747e-38
5.110424198 -2.723413361 -1.865915374 2.295671184e-38
5.086919724 -2.75109682 -1.863461836 2.295671184e-38
5.072446815 -2.783631512 -1.864381913 2.295671184e-38
5.079387566 -2.828130661 -1.873275987 2.295671184e-38
5.051993994 -2.853626583 -1.86959568 2.295671184e-38
5.020349897 -2.876527073 -1.864381913 2.304890747e-38
4.99849069 -2.904885964 -1.862848452 2.304890747e-38
4.983852479 -2.937434602 -1.86407522 2.304890747e-38
4.981257927 -2.977237575 -1.869902372 2.31411031e-38
4.974292028 -3.014652374 -1.874196063 2.295671184e-38
4.947591353 -3.040134296 -1.871129141 2.295671184e-38
4.893297811 -3.048291147 -1.857634684 2.277232058e-38
4.882549449 -3.083340625 -1.860701606 2.295671184e-38
4.879571277 -3.123504211 -1.86683545 2.286451621e-38
4.854724638 -3.149759531 -1.864688605 2.295671184e-38
4.842464214 -3.184194747 -1.867448835 2.295671184e-38
4.822835204 -3.213847607 -1.867448835 2.304890747e-38
4.796714189 -3.239118171 -1.864995297 2.304890747e-38
4.768893834 -3.26311436 -1.861928375 2.295671184e-38
4.74799976 -3.291772013 -1.861621683 2.277232058e-38
4.739395427 -3.329049593 -1.866222066 2.295671184e-38
4.713451088 -3.354204289 -1.86407522 2.295671184e-38
4.692781348 -3.383062339 -1.86407522 2.286451621e-38
4.676546907 -3.415161028 -1.865915374 2.286451621e-38
4.655503838 -3.443791491 -1.865915374 2.295671184e-38
4.628191757 -3.467726495 -1.863461836 2.286451621e-38
4.600003257 -3.490880772 -1.860701606 2.286451621e-38
4.587552892 -3.526000503 -1.864381913 2.295671184e-38
4.562075987 -3.551159576 -1.862848452 2.286451621e-38
4.547675413 -3.584977567 -1.865915374 2.277232058e-38
4.52261739 -3.610438804 -1.864688605 2.286451621e-38
4.492977077 -3.632137345 -1.861621683 2.277232058e-38
4.472815648 -3.661446077 -1.862541759 2.286451621e-38
4.450265238 -3.688821832 -1.862541759 2.277232058e-38
4.435566876 -3.722789587 -1.865915374 2.286451621e-38
4.419168345 -3.755482876 -1.868675603 2.286451621e-38
4.402535361 -3.788114877 -1.871435833 2.277232058e-38
4.402892086 -3.835689084 -1.881556676 2.277232058e-38
4.391408764 -3.873335818 -1.886770444 2.295671184e-38
4.354070868 -3.888162575 -1.880943292 2.277232058e-38
4.32165913 -3.90714564 -1.877262985 2.240353806e-38
4.308135603 -3.943228866 -1.881863368 2.258792932e-38
4.290840824 -3.976058202 -1.88493029 2.258792932e-38
4.26289257 -3.999055428 -1.883396829 2.286451621e-38
4.209287846 -3.997607739 -1.870515757 2.295671184e-38
4.206635765 -4.044469802 -1.880329907 2.304890747e-38
4.182422241 -4.070868971 -1.880636599 2.286451621e-38
4.163466934 -4.102467608 -1.883396829 2.295671184e-38
4.138216289 -4.127936933 -1.883396829 2.295671184e-38
4.105442818 -4.145811378 -1.880023215 2.304890747e-38
4.07593391 -4.166841388 -1.878183062 2.286451621e-38
4.048967164 -4.190403443 -1.877569677 2.304890747e-38
4.050122976 -4.243398204 -1.890144058 2.295671184e-38
4.025968523 -4.270247053 -1.891064134 2.304890747e-38
3.983474275 -4.277456029 -1.883396829 2.286451621e-38
3.94942072 -4.293411554 -1.879716523 2.295671184e-38
3.936444011 -4.332357337 -1.886157059 2.304890747e-38
3.902158211 -4.347928998 -1.882476753 2.286451621e-38
3.883614295 -4.381049592 -1.886463751 2.295671184e-38
3.858540563 -4.406944861 -1.887383828 2.286451621e-38
3.832672605 -4.43197735 -1.887997212 2.286451621e-38
3.797988408 -4.446725745 -1.884316906 2.304890747e-38
3.773700864 -4.473583707 -1.885850367 2.277232058e-38
3.767503625 -4.522249364 -1.896584594 2.277232058e-38
3.716100015 -4.516615942 -1.884623598 2.286451621e-38
3.693118341 -4.545242106 -1.887077136 2.277232058e-38
3.667542419 -4.570786581 -1.888303905 2.31411031e-38
3.653022952 -4.610362461 -1.895357825 2.277232058e-38
3.623492502 -4.631190948 -1.894744441 2.295671184e-38
3.589188789 -4.64580499 -1.891677519 2.31411031e-38
3.562346917 -4.670010684 -1.892597595 2.31411031e-38
3.538206153 -4.697863282 -1.895051133 2.304890747e-38
3.497955159 -4.704208986 -1.888917289 2.286451621e-38
3.468461582 -4.724816215 -1.888610597 2.304890747e-38
3.446666205 -4.756028534 -1.892597595 2.295671184e-38
3.423510536 -4.785602656 -1.89597121 2.295671184e-38
3.400121476 -4.815071359 -1.899344824 2.304890747e-38
3.359627836 -4.820226342 -1.89321098 2.295671184e-38
3.328369907 -4.838397349 -1.892290903 2.304890747e-38
3.308777226 -4.873690811 -1.898118055 2.31411031e-38
3.284638118 -4.902599501 -1.901491669 2.304890747e-38
3.255019419 -4.923455349 -1.901798362 2.304890747e-38
3.222668243 -4.940146356 -1.900571593 2.304890747e-38
3.183538104 -4.946221169 -1.895357825 2.31411031e-38
3.154659377 -4.968072396 -1.896277902 2.304890747e-38
3.129674499 -4.996208327 -1.899651516 2.304890747e-38
3.108965753 -5.031511712 -1.90578536 2.31411031e-38
3.064164969 -5.027735959 -1.897197978 2.304890747e-38
3.041593499 -5.060311012 -1.902411746 2.31411031e-38
3.002721517 -5.065778175 -1.897504671 2.304890747e-38
2.985510501 -5.107937634 -1.906398745 2.295671184e-38
2.954112583 -5.126160227 -1.906398745 2.304890747e-38
2.916491179 -5.133431382 -1.902411746 2.31411031e-38
2.887263572 -5.155382208 -1.903945207 2.304890747e-38
2.857416323 -5.176334195 -1.905171976 2.304890747e-38
2.833333793 -5.207983 -1.910385743 2.31411031e-38
2.80087515 -5.224431109 -1.910079051 2.323329873e-38
2.76832135 -5.240677002 -1.909772359 2.304890747e-38
2.733037283 -5.251654226 -1.907625513 2.323329873e-38
2.704235939 -5.275100948 -1.910079051 2.332549436e-38
2.675249628 -5.298391692 -1.912532589 2.332549436e-38
2.632518239 -5.294252682 -1.905171976 2.332549436e-38
2.597891049 -5.306031616 -1.903638515 2.332549436e-38
2.567351391 -5.326159083 -1.905171976 2.332549436e-38
2.532582262 -5.337512201 -1.903638515 2.332549436e-38
2.500992437 -5.355538573 -1.904558591 2.332549436e-38
2.471661323 -5.378567302 -1.907318821 2.332549436e-38
2.440573141 -5.397968294 -1.908852282 2.332549436e-38
2.408179475 -5.4145811 -1.909465667 2.341768999e-38
2.374529446 -5.428383454 -1.909158974 2.332549436e-38
2.338920256 -5.437604983 -1.907318821 2.332549436e-38
2.292165766 -5.420294754 -1.896277902 2.323329873e-38
2.269824353 -5.460624273 -1.905478668 2.323329873e-38
2.23087684 -5.461231937 -1.900878285 2.323329873e-38
2.196970833 -5.473934214 -1.900571593 2.31411031e-38
2.174513089 -5.515646847 -1.910385743 2.332549436e-38
2.143721679 -5.536874014 -1.913145973 2.323329873e-38
2.108016691 -5.545474933 -1.911612512 2.31411031e-38
2.072286928 -5.553846317 -1.910079051 2.31411031e-38
2.031297714 -5.547687717 -1.903638515 2.295671184e-38
2.004620188 -5.580649811 -1.910692435 2.323329873e-38
1.971289028 -5.595538059 -1.911612512 2.31411031e-38
1.937850599 -5.610227282 -1.912532589 2.31411031e-38
1.904611317 -5.625618264 -1.913759358 2.332549436e-38
1.872155139 -5.643522619 -1.915906203 2.323329873e-38
0.449270439 -5.989085856 -1.935227812 2.341768999e-38
0.4124482671 -5.990780224 -1.93492112 2.332549436e-38
0.3750862969 -5.983698742 -1.931854198 2.332549436e-38
0.3397605951 -6.010595171 -1.939828195 2.31411031e-38
0.301772521 -5.990702876 -1.932774274 2.341768999e-38
0.2653449904 -6.000048779 -1.935227812 2.341768999e-38
0.08150426396 -6.030109434 -1.943201809 2.332549436e-38
0.04454481644 -6.036206716 -1.945041962 2.332549436e-38
0.00749112272 -6.023992904 -1.941054964 2.341768999e-38
-0.02949482682 -6.028684456 -1.942588425 2.332549436e-38
-0.06643310091 -6.023631236 -1.941054964 2.341768999e-38
-0.1028203878 -5.989801818 -1.930320737 2.350988562e-38
-0.1401255672 -6.012846928 -1.937988042 2.341768999e-38
-0.1765968626 -5.997602997 -1.933387659 2.341768999e-38
-0.213427989 -5.997357722 -1.933694351 2.332549436e-38
-0.2493102781 -5.974062691 -1.92664043 2.341768999e-38
-0.284140912 -5.934391708 -1.914372742 2.323329873e-38
-0.3183401072 -5.891668377 -1.901184977 2.31411031e-38
-0.348937847 -5.797445498 -1.871435833 2.323329873e-38
-0.3824243147 -5.763854539 -1.861314991 2.332549436e-38
-0.4136531265 -5.704440558 -1.842913458 2.295671184e-38
-0.4450633276 -5.656249004 -1.828192232 2.295671184e-38
-0.4780708912 -5.633495272 -1.821751696 2.277232058e-38
-0.5099530356 -5.601071301 -1.812244238 2.295671184e-38
-0.5437582698 -5.592152805 -1.810404085 2.286451621e-38
-0.5796276641 -5.603859221 -1.81531116 2.277232058e-38
-0.6159723321 -5.618173843 -1.821138312 2.240353806e-38
-0.6437514206 -5.556613977 -1.802430087 2.268012495e-38
-0.6793334222 -5.564841724 -1.806417086 2.240353806e-38
-0.7098319091 -5.532246574 -1.79721632 2.258792932e-38
-0.7447791507 -5.535333452 -1.799669857 2.212695117e-38
-0.7760751423 -5.511809135 -1.793536013 2.212695117e-38
-0.809603381 -5.50506011 -1.792922629 2.22191468e-38
-0.8430780266 -5.498107221 -1.792309244 2.231134243e-38
-0.8772480092 -5.495650419 -1.793229321 2.277232058e-38
-0.9125101544 -5.499553984 -1.796296243 2.286451621e-38
-0.9417140179 -5.467587469 -1.787708861 2.295671184e-38
-0.9739063036 -5.454210387 -1.785255324 2.304890747e-38
-1.008738818 -5.45561949 -1.787708861 2.304890747e-38
-1.043088854 -5.454001609 -1.789242322 2.286451621e-38
-1.074320011 -5.436293664 -1.785562016 2.295671184e-38
-1.105753723 -5.42027342 -1.782495094 2.304890747e-38
-1.138795107 -5.412455192 -1.782188402 2.295671184e-38
-1.171983871 -5.405365789 -1.782188402 2.286451621e-38
-1.208239321 -5.412006983 -1.786788785 2.268012495e-38
-1.238867026 -5.393359681 -1.783108478 2.286451621e-38
-1.270624109 -5.380098654 -1.781268325 2.295671184e-38
-1.29642942 -5.342602069 -1.771454175 2.295671184e-38
-1.327575749 -5.328081757 -1.769307329 2.295671184e-38
-1.363072672 -5.330901306 -1.772987636 2.286451621e-38
-1.39720544 -5.327961362 -1.774827789 2.286451621e-38
-1.427647145 -5.311015364 -1.772067559 2.304890747e-38
-1.463240671 -5.313167253 -1.775747865 2.286451621e-38
-1.493489007 -5.29584426 -1.772987636 2.277232058e-38
-1.521732214 -5.271949089 -1.76808056 2.268012495e-38
-1.546773341 -5.23786604 -1.759799871 2.268012495e-38
-1.58356093 -5.243766455 -1.765013638 2.277232058e-38
-1.607845314 -5.208486273 -1.756426257 2.249573369e-38
-1.642923274 -5.208507611 -1.759799871 2.277232058e-38
-1.670764722 -5.185645504 -1.75550618 2.268012495e-38
-1.703146675 -5.177104546 -1.756119564 2.258792932e-38
-1.736698628 -5.171970563 -1.757959718 2.268012495e-38
-1.767166495 -5.157615333 -1.756732949 2.258792932e-38
-1.795325401 -5.136791484 -1.753359334 2.231134243e-38
-1.828408065 -5.130161715 -1.754892795 2.240353806e-38
-1.855951303 -5.108111156 -1.751212489 2.31411031e-38
-1.884615 -5.089486461 -1.748758951 2.295671184e-38
-1.919167912 -5.086732216 -1.751825873 2.341768999e-38
-1.952733513 -5.081079858 -1.753972719 2.304890747e-38
-1.97103868 -5.036207726 -1.742625107 2.231134243e-38
-2.010358934 -5.045239631 -1.74998572 2.286451621e-38
-2.04449778 -5.04074751 -1.75274595 2.277232058e-38
-2.070304671 -5.015790493 -1.748452259 2.268012495e-38
-2.097356618 -4.99421728 -1.745385337 2.258792932e-38
-2.129456745 -4.984755272 -1.746612106 2.249573369e-38
-2.165691749 -4.984689967 -1.751212489 2.277232058e-38
-2.176235711 -4.926034842 -1.735264494 2.268012495e-38
-2.208370149 -4.916930256 -1.736797955 2.268012495e-38
-1.511174109 -3.310130267 -1.172484299 2.332549436e-38
-1.520239714 -3.276620237 -1.163896917 2.304890747e-38
-1.529357289 -3.243985422 -1.155616227 2.295671184e-38
-1.54306589 -3.22166404 -1.151015844 2.295671184e-38
-1.564053846 -3.214702973 -1.151935921 2.295671184e-38
-1.581641157 -3.200779035 -1.15040246 2.304890747e-38
-1.599116562 -3.186760463 -1.148868999 2.295671184e-38
-1.618640053 -3.176888478 -1.148868999 2.304890747e-38
-1.642475542 -3.175350961 -1.151935921 2.304890747e-38
-1.67254756 -3.18543815 -1.159296534 2.31411031e-38
-1.698776086 -3.187715291 -1.163896917 2.31411031e-38
-1.726453616 -3.192301663 -1.169417377 2.323329873e-38
-2.580777628 -4.702798199 -1.728517266 2.175816865e-38
-2.618845288 -4.703506233 -1.73465111 2.231134243e-38
-2.631740264 -4.659171627 -1.724223575 2.286451621e-38
-2.649868664 -4.624767136 -1.717476347 2.323329873e-38
-2.698760536 -4.643806876 -1.730664111 2.286451621e-38
-2.718987672 -4.613220475 -1.725450344 2.295671184e-38
-2.757008914 -4.612790267 -1.731584188 2.295671184e-38
-2.778354143 -4.584390886 -1.727290497 2.286451621e-38
-2.797960018 -4.553470816 -1.72207673 2.295671184e-38
-2.829369791 -4.541872262 -1.724223575 2.286451621e-38
-2.848545278 -4.510744958 -1.719009808 2.295671184e-38
-2.874116492 -4.489975147 -1.717783039 2.277232058e-38
-2.892287411 -4.457882837 -1.712262579 2.295671184e-38
-2.924815441 -4.448004984 -1.715329501 2.286451621e-38
-2.959970008 -4.441855777 -1.719929884 2.286451621e-38
-2.981842382 -4.41572209 -1.716862962 2.286451621e-38
-3.001355722 -4.38634544 -1.712569271 2.295671184e-38
-3.02767103 -4.367064689 -1.712262579 2.295671184e-38
-3.05440984 -4.34840504 -1.712262579 2.295671184e-38
-3.079378074 -4.327255195 -1.711342502 2.295671184e-38
-3.108654683 -4.312139492 -1.712875963 2.304890747e-38
-3.14740432 -4.309894561 -1.719623192 2.277232058e-38
-3.153412623 -4.262953958 -1.708582273 2.295671184e-38
-3.172661551 -4.234384131 -1.704901966 2.304890747e-38
-3.196281966 -4.211804532 -1.703675197 2.304890747e-38
-3.23018536 -4.20267841 -1.707968888 2.295671184e-38
-3.251819158 -4.177521673 -1.705822043 2.295671184e-38
-3.27267676 -4.151510395 -1.703368505 2.304890747e-38
-3.288587187 -4.119449853 -1.69846143 2.304890747e-38
-3.317392 -4.103635077 -1.700301583 2.304890747e-38
-3.350346756 -4.092777302 -1.704288582 2.286451621e-38
-3.370537189 -4.066280554 -1.701835044 2.295671184e-38
-3.388693086 -4.037503182 -1.69846143 2.304890747e-38
-3.41648475 -4.020260977 -1.699994891 2.304890747e-38
-3.442329891 -4.000665122 -1.700608275 2.295671184e-38
-3.460560567 -3.972291393 -1.697541353 2.295671184e-38
-3.465980767 -3.929568473 -1.688340587 2.286451621e-38
-3.495098691 -3.913907174 -1.690794125 2.277232058e-38
-3.527346317 -3.901566468 -1.694781123 2.295671184e-38
-3.540294625 -3.867913794 -1.689567356 2.277232058e-38
-3.57107733 -3.853797811 -1.69294097 2.286451621e-38
-3.594656565 -3.831813546 -1.69294097 2.277232058e-38
-3.637108599 -3.829699665 -1.701835044 2.286451621e-38
-3.665156454 -3.812113572 -1.703981889 2.286451621e-38
-3.669225832 -3.769772949 -1.695087816 2.268012495e-38
-3.69562788 -3.750577931 -1.696621277 2.277232058e-38
-3.716554845 -3.725809781 -1.6957012 2.268012495e-38
-3.750167062 -3.713650966 -1.700608275 2.258792932e-38
-3.775604647 -3.693232734 -1.701835044 2.268012495e-38
-3.807093098 -3.678594473 -1.705822043 2.258792932e-38
-3.811691134 -3.638078987 -1.697848045 2.268012495e-38
-3.831864571 -3.612663613 -1.696927969 2.258792932e-38
-3.84908354 -3.584543046 -1.694781123 2.258792932e-38
-3.878711009 -3.567946244 -1.698154738 2.258792932e-38
-3.893486016 -3.537679033 -1.695087816 2.258792932e-38
-3.917952963 -3.516265407 -1.696314584 2.268012495e-38
-3.946577107 -3.4984729 -1.699381506 2.258792932e-38
-3.970117372 -3.476072292 -1.700301583 2.249573369e-38
-3.978412416 -3.440440028 -1.694781123 2.268012495e-38
-4.008132678 -3.42338213 -1.69846143 2.258792932e-38
-4.01742222 -3.388904891 -1.693554355 2.277232058e-38
-4.038871805 -3.36479989 -1.693861047 2.277232058e-38
-4.055031758 -3.336326084 -1.692020894 2.277232058e-38
-4.073210625 -3.309581429 -1.691100817 2.268012495e-38
-4.088986924 -3.280952354 -1.689260664 2.277232058e-38
-4.111279535 -3.257574351 -1.69018074 2.286451621e-38
-4.132689494 -3.233459722 -1.690794125 2.268012495e-38
-4.155464677 -3.210368766 -1.692020894 2.286451621e-38
-4.182652576 -3.190583602 -1.695087816 2.286451621e-38
-4.211274433 -3.171730682 -1.698768122 2.277232058e-38
-4.229128942 -3.144695197 -1.698154738 2.268012495e-38
-4.251413876 -3.12093953 -1.699381506 2.231134243e-38
-4.237343198 -3.070777961 -1.686193742 2.277232058e-38
-4.25687949 -3.045274092 -1.686500434 2.31411031e-38
-4.262267268 -3.009763593 -1.681286666 2.258792932e-38
-4.280654594 -2.983554154 -1.681286666 2.258792932e-38
-4.302801662 -2.959929607 -1.682820127 2.268012495e-38
-4.328757212 -2.938818616 -1.685887049 2.240353806e-38
-4.319822753 -2.894190007 -1.675459514 2.258792932e-38
-4.343851671 -2.871828938 -1.677913052 2.295671184e-38
-4.375740414 -2.854482167 -1.683433512 2.268012495e-38
-4.398775331 -2.831185343 -1.685580357 2.249573369e-38
-4.405618785 -2.797508873 -1.681593359 2.258792932e-38
-4.429154008 -2.774466044 -1.684046896 2.258792932e-38
-4.445284728 -2.746736721 -1.683740204 2.258792932e-38
-4.470995071 -2.724857985 -1.687113818 2.286451621e-38
-4.023448962 -2.418368392 -1.512605954 2.277232058e-38
-3.966978383 -2.351411952 -1.485923732 2.138938613e-38
-4.003518686 -2.339994717 -1.494204421 2.175816865e-38
-4.035119368 -2.325365648 -1.500644958 2.185036428e-38
-4.52764841 -2.572323592 -1.677913052 2.295671184e-38
-4.544177101 -2.544959128 -1.678219744 2.295671184e-38
-4.558873854 -2.51656869 -1.677913052 2.277232058e-38
-4.585098535 -2.494461795 -1.681900051 2.286451621e-38
-4.607867707 -2.470328709 -1.684660281 2.286451621e-38
-4.624621828 -2.442897996 -1.685273665 2.277232058e-38
-4.095783706 -2.131505443 -1.487763885 2.240353806e-38
-4.093539319 -2.098518351 -1.482243425 2.286451621e-38
-4.149670466 -2.095240408 -1.497884728 2.350988562e-38
-0.5485995235 0.7871032161 -0.3091457424 2.350988562e-38
-2.269922527 5.367696066 -1.87787637 2.350988562e-38
-2.230733543 5.366581653 -1.872662602 2.350988562e-38
-2.200282369 5.386336049 -1.874809448 2.350988562e-38
-1.619809543 4.035889208 -1.401276683 2.350988562e-38
-1.596062585 4.048408634 -1.40219676 2.350988562e-38
-1.550572654 4.004869438 -1.383795228 2.332549436e-38
-1.527661061 4.018756662 -1.385328689 2.341768999e-38
-1.513288527 4.055698948 -1.394836147 2.350988562e-38
-1.98548143 5.422558624 -1.860701606 2.304890747e-38
-1.947345326 5.421202674 -1.856101223 2.304890747e-38
-1.91341226 5.431253852 -1.855487839 2.304890747e-38
-1.871038881 5.416802191 -1.846593765 2.31411031e-38
-1.840513821 5.436294572 -1.849353995 2.31411031e-38
-1.810718961 5.458326183 -1.853034301 2.31411031e-38
-1.775134236 5.462997261 -1.850887456 2.31411031e-38
-1.742157659 5.475600454 -1.85150084 2.323329873e-38
-1.703999061 5.471646888 -1.846593765 2.323329873e-38
-1.672890441 5.490193747 -1.849353995 2.323329873e-38
-1.640259098 5.504003718 -1.850580763 2.332549436e-38
-1.606988757 5.515792179 -1.851194148 2.332549436e-38
-1.571811132 5.520971482 -1.849660687 2.332549436e-38
-1.538415499 5.532346032 -1.850274071 2.341768999e-38
-1.50294449 5.536170058 -1.848433918 2.341768999e-38
-1.466265892 5.535166918 -1.845060304 2.341768999e-38
-1.433465532 5.548667321 -1.846593765 2.350988562e-38
-1.402181589 5.568434399 -1.850274071 2.350988562e-38
-1.370708932 5.588026055 -1.853954378 2.350988562e-38
-1.33904854 5.607440716 -1.857634684 2.350988562e-38
-1.308493742 5.632239522 -1.863155144 2.350988562e-38
-1.282507922 5.678227556 -1.875729524 2.350988562e-38
0.8277164275 5.394784595 -1.828310885 2.350988562e-38
0.8618494632 5.396158685 -1.830534334 2.350988562e-38
0.8901294178 5.361771179 -1.820687629 2.350988562e-38
0.9189861735 5.332847521 -1.812746737 2.350988562e-38
0.9525244035 5.331775509 -1.814334915 2.350988562e-38
0.9826343903 5.31184466 -1.80957038 2.350988562e-38
1.017347166 5.316891144 -1.813382008 2.341768999e-38
1.05050358 5.313339349 -1.814334915 2.341768999e-38
1.084223537 5.312367922 -1.816240729 2.332549436e-38
1.118166394 5.312110404 -1.818464179 2.332549436e-38
1.145714777 5.281982873 -1.810523287 2.332549436e-38
1.178722901 5.277629707 -1.811476194 2.332549436e-38
1.219365642 5.306338813 -1.823863985 2.323329873e-38
1.252119796 5.299679842 -1.824181621 2.323329873e-38
1.283719715 5.288211408 -1.822911078 2.332549436e-38
1.320271403 5.296796216 -1.82862852 2.31411031e-38
1.354156925 5.294107297 -1.830534334 2.31411031e-38
1.387818498 5.290284578 -1.832122513 2.31411031e-38
1.4190218 5.277091072 -1.830534334 2.31411031e-38
1.451626553 5.269198935 -1.83085197 2.31411031e-38
1.479811255 5.245591224 -1.825769799 2.31411031e-38
1.515915382 5.250077486 -1.830534334 2.323329873e-38
1.547294833 5.237949074 -1.829581427 2.323329873e-38
