# .PCD v0.7 - Point Cloud Data file format
VERSION 0.7
FIELDS x y z rgb
SIZE 4 4 4 4
TYPE F F F F
COUNT 1 1 1 1
WIDTH 885
HEIGHT 1
VIEWPOINT 0 0 0 1 0 0 0
POINTS 885
DATA ascii
6.095440261 7.933155561 -1.484468547 2.31411031e-38
6.142180018 7.89326332 -1.484028226 2.323329873e-38
6.18253725 7.845327078 -1.482120169 2.323329873e-38
6.177496096 7.740753366 -1.469497636 2.31411031e-38
6.193167358 7.663466543 -1.462012181 2.31411031e-38
6.231929064 7.61536999 -1.460104124 2.323329873e-38
6.279801054 7.578511554 -1.460397671 2.31411031e-38
6.321097332 7.533774575 -1.459223482 2.31411031e-38
6.396024286 7.528770799 -1.465828296 2.31411031e-38
6.436294115 7.482634586 -1.464507333 2.31411031e-38
6.437910169 7.392277367 -1.454526726 2.323329873e-38
6.48118453 7.350410112 -1.454086405 2.31411031e-38
6.516941395 7.30017316 -1.452031574 2.31411031e-38
6.540387479 7.236565108 -1.447334818 2.323329873e-38
6.576654105 7.187540535 -1.445573534 2.31411031e-38
6.621304435 7.147777303 -1.445720308 2.323329873e-38
6.627821781 7.067331347 -1.437647758 2.31411031e-38
6.654034643 7.008596783 -1.433978417 2.304890747e-38
6.674978706 6.944815132 -1.42928166 2.31411031e-38
6.679525544 6.864735404 -1.42120911 2.31411031e-38
6.734710009 6.837010701 -1.42399781 2.304890747e-38
6.751389499 6.770343162 -1.418713959 2.304890747e-38
6.791398946 6.727397705 -1.418420411 2.31411031e-38
6.833256647 6.686291628 -1.418567185 2.304890747e-38
6.868464391 6.638738058 -1.417392996 2.304890747e-38
6.913362306 6.600567439 -1.418273638 2.31411031e-38
6.938620367 6.543771445 -1.415191391 2.31411031e-38
6.969956273 6.492982742 -1.413430108 2.323329873e-38
6.993651485 6.435358249 -1.410201088 2.31411031e-38
7.016170566 6.377022673 -1.406825294 2.31411031e-38
7.053695038 6.332530597 -1.406531747 2.31411031e-38
7.105739806 6.300943769 -1.409173672 2.31411031e-38
7.14575614 6.258528608 -1.40946722 2.31411031e-38
7.200481476 6.228802521 -1.41269624 2.323329873e-38
7.242325437 6.187716671 -1.413430108 2.31411031e-38
7.25294068 6.120197023 -1.408146257 2.31411031e-38
7.276679001 6.064179771 -1.405504331 2.304890747e-38
7.290838373 6.000558929 -1.401101122 2.31411031e-38
7.337498676 5.963820874 -1.40300918 2.304890747e-38
7.39863914 5.938500137 -1.407705936 2.323329873e-38
7.435713014 5.893605579 -1.40785271 2.31411031e-38
7.421103453 5.80824198 -1.398312423 2.295671184e-38
7.473038758 5.77529988 -1.40139467 2.31411031e-38
7.497325366 5.720936669 -1.399339839 2.31411031e-38
7.522806701 5.667683612 -1.397578555 2.31411031e-38
7.552679246 5.617875679 -1.396697913 2.323329873e-38
7.600561629 5.581380716 -1.399193065 2.323329873e-38
7.581007169 5.495740827 -1.389359232 2.31411031e-38
7.613781276 5.448545533 -1.389212458 2.323329873e-38
7.639798214 5.396589335 -1.387891495 2.31411031e-38
7.688184186 5.360359831 -1.390680194 2.323329873e-38
7.689149926 5.29121595 -1.384956023 2.31411031e-38
7.684648006 5.218928431 -1.378351209 2.31411031e-38
7.746928756 5.192054187 -1.383781833 2.323329873e-38
7.767089965 5.136783036 -1.381727003 2.323329873e-38
7.786036612 5.080919657 -1.379525398 2.323329873e-38
7.808749066 5.027694909 -1.378057662 2.323329873e-38
7.827761967 4.972261437 -1.376002831 2.323329873e-38
7.850580035 4.919410419 -1.374681868 2.323329873e-38
7.842753874 4.847743583 -1.368077054 2.323329873e-38
7.923870951 4.830939956 -1.377030246 2.323329873e-38
7.937257085 4.772544304 -1.374241547 2.323329873e-38
7.946822188 4.712148576 -1.370865754 2.323329873e-38
7.962777035 4.655809848 -1.368664149 2.31411031e-38
7.987766791 4.604887388 -1.368077054 2.323329873e-38
8.021031361 4.558721283 -1.368957696 2.31411031e-38
8.037633641 4.503134102 -1.367049639 2.31411031e-38
8.001035489 4.418346314 -1.35618839 2.295671184e-38
8.030601827 4.370588271 -1.356628711 2.304890747e-38
8.055524648 4.320296121 -1.356335164 2.304890747e-38
8.108993448 4.28511387 -1.360885146 2.295671184e-38
8.151804119 4.243956203 -1.363673845 2.323329873e-38
8.183852303 4.197017507 -1.364701261 2.332549436e-38
8.20680188 4.145385385 -1.36426094 2.323329873e-38
8.201971019 4.079972517 -1.359270636 2.31411031e-38
8.321902479 4.076126315 -1.374975415 2.332549436e-38
8.271022656 3.988466862 -1.362499656 2.31411031e-38
8.303382178 3.941459339 -1.363820619 2.323329873e-38
8.32113687 3.88750574 -1.362793204 2.323329873e-38
8.327757387 3.828524605 -1.360004505 2.323329873e-38
8.311436484 3.759417446 -1.353546465 2.323329873e-38
8.342481092 3.711967739 -1.354867427 2.323329873e-38
8.366006449 3.661105927 -1.355014201 2.31411031e-38
8.378318345 3.605403167 -1.353399691 2.31411031e-38
8.386618041 3.548145651 -1.351198086 2.304890747e-38
8.373524162 3.482186391 -1.345620688 2.323329873e-38
8.417624223 3.44009707 -1.349290029 2.31411031e-38
8.454178693 3.394648649 -1.351785181 2.31411031e-38
8.485890866 3.347066204 -1.353546465 2.323329873e-38
8.492432504 3.289575389 -1.35134486 2.31411031e-38
8.495814946 3.23107564 -1.348702935 2.31411031e-38
8.521967448 3.181307088 -1.34973035 2.31411031e-38
8.556188101 3.134401424 -1.352078728 2.31411031e-38
8.595738702 3.08920266 -1.355307748 2.31411031e-38
8.602403993 3.032127275 -1.353399691 2.323329873e-38
8.575970941 2.963778133 -1.346354556 2.323329873e-38
8.61273249 2.91744828 -1.349290029 2.31411031e-38
8.635165529 2.866104631 -1.350023897 2.31411031e-38
8.641300622 2.809396283 -1.348262614 2.304890747e-38
8.650835587 2.753920919 -1.347088425 2.31411031e-38
8.672292406 2.702259887 -1.347822293 2.31411031e-38
8.689656081 2.649285299 -1.347969066 2.304890747e-38
8.70764406 2.596482012 -1.348262614 2.295671184e-38
8.728160066 2.544388209 -1.348996482 2.304890747e-38
8.745510479 2.491327333 -1.349290029 2.286451621e-38
8.736808151 2.430989983 -1.345620688 2.295671184e-38
8.770651493 2.382522334 -1.348556161 2.295671184e-38
8.819526666 2.337785833 -1.353840012 2.304890747e-38
8.803059041 2.275703846 -1.349143256 2.295671184e-38
8.819734346 2.222371532 -1.349583576 2.286451621e-38
8.844732369 2.171042466 -1.35134486 2.304890747e-38
8.880015017 2.122019144 -1.354720654 2.277232058e-38
8.891904844 2.067268453 -1.35457388 2.286451621e-38
8.915035114 2.015068726 -1.35618839 2.295671184e-38
8.919502315 1.958631911 -1.355014201 2.268012495e-38
8.915873401 1.900566409 -1.352665823 2.268012495e-38
8.898306778 1.839815319 -1.348262614 2.295671184e-38
8.923976545 1.788096759 -1.350464218 2.295671184e-38
8.942548639 1.734813668 -1.351638407 2.295671184e-38
8.971496787 1.683376553 -1.354427106 2.286451621e-38
8.965110723 1.625297115 -1.351931955 2.295671184e-38
8.944709148 1.564972867 -1.347381972 2.295671184e-38
8.934635322 1.506769813 -1.344446499 2.295671184e-38
8.965193028 1.4554067 -1.347675519 2.286451621e-38
8.968090416 1.399454837 -1.346794877 2.295671184e-38
8.97259545 1.343815273 -1.346207783 2.295671184e-38
9.002213119 1.291826331 -1.349436803 2.277232058e-38
9.018790006 1.237775945 -1.350757766 2.286451621e-38
9.059561957 1.186782757 -1.355748069 2.295671184e-38
9.05194997 1.129335074 -1.353546465 2.286451621e-38
9.060673626 1.074004966 -1.353840012 2.277232058e-38
9.06905901 1.018610313 -1.354133559 2.277232058e-38
9.088909438 0.9644056582 -1.35618839 2.277232058e-38
9.108435606 0.9099956991 -1.358243221 2.277232058e-38
9.110893206 0.853813376 -1.3578029 2.277232058e-38
9.108077374 0.7972039176 -1.356628711 2.277232058e-38
9.098008768 0.7400997753 -1.354427106 2.286451621e-38
9.117174471 0.6853737694 -1.356628711 2.268012495e-38
9.123181864 0.6295551302 -1.356922258 2.295671184e-38
9.193016915 0.5777212014 -1.366756092 2.350988562e-38
1.971029228 0.03905018599 -0.2925198551 2.350988562e-38
1.92094682 -0.009094225128 -0.2850343997 2.350988562e-38
1.924811304 -0.02092377082 -0.2856214943 2.350988562e-38
1.932558901 -0.03286836561 -0.2867956833 2.350988562e-38
1.93133194 -0.04470281606 -0.2866489097 2.350988562e-38
1.936953769 -0.05672614465 -0.2875295515 2.350988562e-38
1.956340239 -0.06931046112 -0.2904650242 2.350988562e-38
1.971691192 -0.08197044146 -0.2928134024 2.350988562e-38
1.983007663 -0.09463278446 -0.294574686 2.350988562e-38
1.991279317 -0.1072774264 -0.2958956487 2.350988562e-38
9.373318462 -0.5626752886 -1.39332212 2.350988562e-38
1.986851887 -0.1315094188 -0.2954553278 2.350988562e-38
1.994886877 -0.1443405023 -0.2967762905 2.350988562e-38
2.004793074 -0.169811804 -0.2985375742 2.350988562e-38
2.019475146 -0.1835423117 -0.3008859523 2.350988562e-38
2.03182979 -0.2098347815 -0.3030875569 2.350988562e-38
2.031550789 -0.2476774088 -0.3036746514 2.350988562e-38
9.321876188 -1.194573301 -1.394496309 2.350988562e-38
9.326135226 -1.253329761 -1.396257592 2.350988562e-38
9.274190525 -1.304330966 -1.389652779 2.350988562e-38
9.291458041 -1.364949788 -1.393468893 2.350988562e-38
9.327885181 -1.42882492 -1.400220481 2.341768999e-38
9.299405914 -1.482917478 -1.397285008 2.350988562e-38
9.297938679 -1.54124372 -1.398459197 2.350988562e-38
9.276608635 -1.596252856 -1.396697913 2.350988562e-38
9.243268486 -1.648973668 -1.393175346 2.350988562e-38
9.267994182 -1.712127251 -1.398459197 2.350988562e-38
9.246626803 -1.766920111 -1.396844687 2.350988562e-38
9.164769509 -1.809635012 -1.386130212 2.350988562e-38
9.2261862 -1.880652536 -1.397138234 2.350988562e-38
9.219313095 -1.938245506 -1.397872102 2.350988562e-38
9.208213435 -1.994987109 -1.398018876 2.350988562e-38
9.198695397 -2.052096215 -1.398459197 2.350988562e-38
9.254381804 -2.124211671 -1.408880125 2.350988562e-38
9.180522155 -2.166641491 -1.399633386 2.350988562e-38
9.199739622 -2.230857049 -1.40462369 2.350988562e-38
9.2175536 -2.295150711 -1.40946722 2.350988562e-38
9.220548094 -2.356073346 -1.412109145 2.350988562e-38
9.208788495 -2.413357507 -1.412549466 2.350988562e-38
9.196672959 -2.470586033 -1.412989787 2.350988562e-38
9.243331581 -2.544030951 -1.422530073 2.350988562e-38
9.174231285 -2.585672338 -1.41431075 2.350988562e-38
9.157242781 -2.641641517 -1.414163976 2.350988562e-38
9.193040873 -2.713179458 -1.422236526 2.350988562e-38
9.153492581 -2.76267629 -1.418713959 2.350988562e-38
9.076820778 -2.800417062 -1.40946722 2.350988562e-38
9.117957652 -2.874498287 -1.418567185 2.350988562e-38
9.118038002 -2.936151639 -1.421355884 2.341768999e-38
9.098910791 -2.991734628 -1.42120911 2.350988562e-38
9.066316087 -3.042787261 -1.419007506 2.350988562e-38
9.089586973 -3.112781262 -1.42561232 2.350988562e-38
9.070316197 -3.168495321 -1.42561232 2.350988562e-38
8.99665875 -3.204837827 -1.417099449 2.350988562e-38
9.022383075 -3.276524651 -1.424291357 2.350988562e-38
8.983555455 -3.324956366 -1.421355884 2.350988562e-38
8.960208156 -3.378968742 -1.420915563 2.350988562e-38
8.950387161 -3.438140378 -1.422676847 2.350988562e-38
8.957679619 -3.504165439 -1.427226829 2.350988562e-38
0.4164360431 -9.382933518 -1.393615667 2.350988562e-38
0.2412568691 -12.17726186 -1.807223771 2.341768999e-38
0.1532253952 -11.20526055 -1.662798514 2.350988562e-38
0.08404333606 -11.1496087 -1.654432417 2.341768999e-38
0.01359776493 -9.700781706 -1.439409041 2.350988562e-38
-0.04345747126 -9.179395722 -1.362059335 2.341768999e-38
-0.09458705646 -8.701215337 -1.29116767 2.350988562e-38
-0.1421716613 -8.359256823 -1.240530765 2.249573369e-38
-0.1921099514 -8.299881704 -1.231871121 2.231134243e-38
-0.2410064839 -8.229334464 -1.221596966 2.175816865e-38
-0.2895699306 -8.173330517 -1.213524417 2.138938613e-38
-0.3383181028 -8.137797132 -1.208534113 2.12971905e-38
-0.5342039331 -8.070783846 -1.200168016 2.111279924e-38
-0.5836438906 -8.066367511 -1.200021242 2.120499487e-38
-0.6321205196 -8.049814746 -1.198113185 2.092840798e-38
-0.6799985955 -8.02804306 -1.195471259 2.157377739e-38
-0.7355122393 -8.09267723 -1.205745414 2.332549436e-38
-0.9390106334 -8.116407207 -1.212350227 2.350988562e-38
-0.6811428014 -5.587010144 -0.8351419848 2.332549436e-38
-0.6981860376 -5.448308439 -0.8150339967 2.295671184e-38
-0.7173741772 -5.338043341 -0.7991824441 2.295671184e-38
-0.7373024216 -5.242444834 -0.785532496 2.31411031e-38
-0.7418517913 -5.04991821 -0.7573519581 2.194255991e-38
-0.7517056892 -4.90740626 -0.7366568755 2.341768999e-38
-0.7783759072 -4.881211277 -0.7334278555 2.350988562e-38
-0.806855969 -4.867560677 -0.7321068928 2.341768999e-38
-0.8335204331 -4.843996249 -0.7293181937 2.350988562e-38
-0.9026619449 -5.059842294 -0.7626358089 2.350988562e-38
-0.9802814106 -5.129997848 -0.7749647943 2.350988562e-38
-1.012698119 -5.128738549 -0.7756986625 2.350988562e-38
-1.038616492 -5.095289511 -0.7715890007 2.341768999e-38
-1.033228941 -4.91457923 -0.7451697463 2.332549436e-38
-0.870254219 -4.016811215 -0.6098444546 2.341768999e-38
-0.8963921544 -4.018153888 -0.61087187 2.350988562e-38
-0.9141700607 -3.982691034 -0.6063218874 2.341768999e-38
-0.9290475101 -3.936572472 -0.6001573947 2.350988562e-38
-0.9534174851 -3.931759149 -0.6003041683 2.350988562e-38
-1.255963448 -5.044074161 -0.7712954534 2.350988562e-38
-1.001302631 -3.820728643 -0.5860671257 2.350988562e-38
-0.9600563362 -3.573777245 -0.5490801696 2.295671184e-38
-0.9677922117 -3.516318978 -0.5411543933 2.268012495e-38
-2.006416019 -5.028723018 -0.8720639691 2.350988562e-38
-1.697968411 -4.038074138 -0.7055703558 2.350988562e-38
-1.735137953 -4.056626812 -0.7106589858 2.350988562e-38
-1.754088935 -4.032323944 -0.7082736905 2.350988562e-38
-1.642288126 -3.652125619 -0.6449838546 2.350988562e-38
-1.602617188 -3.395394281 -0.6047518736 2.350988562e-38
-2.145193235 -4.081122227 -0.7426219431 2.350988562e-38
-2.216735455 -4.094427267 -0.7499368487 2.341768999e-38
-2.136092476 -3.42552608 -0.6502315043 2.350988562e-38
-2.161988884 -3.374116962 -0.6454609137 2.350988562e-38
-2.165981707 -3.335120222 -0.6405313034 2.350988562e-38
-2.188118718 -3.280364183 -0.635124634 2.350988562e-38
-2.242484066 -3.31758904 -0.6449838546 2.212695117e-38
-2.242714188 -3.274443588 -0.6392591459 2.268012495e-38
-3.519103953 -5.070995509 -0.9941910895 2.277232058e-38
-3.407624225 -4.846591923 -0.9542771478 2.22191468e-38
-3.422405729 -4.804684484 -0.9501426359 2.277232058e-38
-3.795560246 -5.259952502 -1.04475935 2.22191468e-38
-3.821354521 -5.227796906 -1.043010134 2.22191468e-38
-3.666537302 -4.951933395 -0.992441873 2.231134243e-38
-3.708699761 -4.94513937 -0.9956222667 2.240353806e-38
-3.72464032 -4.903421739 -0.9918057942 2.268012495e-38
-3.630043598 -4.718497208 -0.9588887188 2.212695117e-38
-3.805163157 -4.88382449 -0.9972124636 2.231134243e-38
-3.216776536 -4.076801551 -0.836443559 2.212695117e-38
-3.183798694 -3.984485748 -0.8214957083 2.194255991e-38
-3.219365458 -3.978690216 -0.8243580627 2.22191468e-38
-3.240589052 -3.955043317 -0.8235629643 2.194255991e-38
-3.73884988 -4.506466313 -0.9431457697 2.175816865e-38
-3.810883554 -4.536355659 -0.9542771478 2.22191468e-38
-3.820096004 -4.491078468 -0.9496655769 2.120499487e-38
-3.859821963 -4.481767842 -0.9526869509 2.157377739e-38
-3.928126343 -4.504879371 -0.9627051913 2.175816865e-38
-4.024954396 -4.559144855 -0.9795612782 2.194255991e-38
-3.987059946 -4.460752596 -0.9636593094 2.277232058e-38
-4.062713303 -4.489643911 -0.9752677466 2.185036428e-38
-3.838758109 -4.190186915 -0.9153173243 2.12971905e-38
-3.895279294 -4.199851544 -0.9226322299 2.212695117e-38
-3.913542001 -4.167954472 -0.9208830133 2.166597302e-38
-8.346062936 -8.780037754 -1.951171572 2.350988562e-38
-3.978086103 -4.1338431 -0.9240634071 2.341768999e-38
-3.909681433 -4.013181287 -0.9024367295 2.332549436e-38
-3.907195237 -3.961702194 -0.8962349617 2.194255991e-38
-3.932825346 -3.939050839 -0.8965530011 2.175816865e-38
-3.813045602 -3.772499938 -0.863953965 2.240353806e-38
-3.952624307 -3.862890486 -0.8901922136 2.194255991e-38
-3.797967176 -3.66645349 -0.8502782719 2.249573369e-38
-3.87397957 -3.694180459 -0.8622047485 2.175816865e-38
-3.946879898 -3.717726063 -0.8733361266 2.286451621e-38
-3.906010745 -3.634257381 -0.8593423941 2.332549436e-38
-3.908609955 -3.592184386 -0.8550488625 2.185036428e-38
-3.912302649 -3.551544185 -0.8510733703 2.258792932e-38
-3.974448959 -3.563722069 -0.8598194531 2.350988562e-38
-9.155064528 -8.10817745 -1.969776876 2.350988562e-38
-9.200184494 -8.04795025 -1.968822757 2.350988562e-38
-9.252380851 -7.993929289 -1.969458836 2.350988562e-38
-9.302758525 -7.938288977 -1.969776876 2.341768999e-38
-9.360350964 -7.888693723 -1.971685112 2.341768999e-38
-9.37822617 -7.8058475 -1.965324324 2.341768999e-38
-9.45874059 -7.775114586 -1.972162171 2.350988562e-38
-9.414288415 -7.642262552 -1.953079808 2.341768999e-38
-9.521858084 -7.633137607 -1.965642364 2.341768999e-38
-9.602574808 -7.601531196 -1.97263923 2.332549436e-38
-9.648258326 -7.54185979 -1.97248021 2.304890747e-38
-9.674813919 -7.467436361 -1.968504718 2.304890747e-38
-9.679618788 -7.376814024 -1.960235694 2.286451621e-38
-9.689199609 -7.290570224 -1.953079808 2.295671184e-38
-9.699672878 -7.205665082 -1.946241962 2.277232058e-38
-9.711858645 -7.122658471 -1.939881174 2.268012495e-38
-9.730589341 -7.044985275 -1.934951564 2.268012495e-38
-9.723833475 -6.949555239 -1.925092343 2.268012495e-38
-9.745317076 -6.874962989 -1.920957831 2.277232058e-38
-4.02268476 -2.801048082 -0.789532751 2.148158176e-38
-4.075596752 -2.800916401 -0.7965296173 2.111279924e-38
-9.760724182 -6.620159544 -1.899649193 2.277232058e-38
-4.15478647 -2.780894898 -0.8052757002 2.268012495e-38
-9.7843859 -6.462338692 -1.888676835 2.258792932e-38
-9.790768573 -6.380619567 -1.882316047 2.22191468e-38
-9.810635246 -6.308143463 -1.878658594 2.22191468e-38
-9.826647105 -6.233548852 -1.874365063 2.231134243e-38
-9.869731944 -6.176278679 -1.875319181 2.304890747e-38
-9.836873659 -6.072042234 -1.861961527 2.231134243e-38
-9.853707153 -5.999248061 -1.858145055 2.249573369e-38
-9.863247148 -5.922410539 -1.853056425 2.268012495e-38
-9.855225912 -5.835621875 -1.844787401 2.295671184e-38
-9.876353136 -5.766578798 -1.842084066 2.304890747e-38
-5.841346146 -3.362739558 -1.08562741 2.350988562e-38
-5.841262437 -3.315139098 -1.081810938 2.350988562e-38
-5.751208442 -3.217535816 -1.061456418 2.31411031e-38
-5.685252581 -3.134990021 -1.045713468 2.120499487e-38
-5.674020584 -3.08354731 -1.040147779 2.046742983e-38
-5.655409836 -3.028632392 -1.033309933 1.991425605e-38
-5.658169576 -2.985581156 -1.030447578 1.954547353e-38
-5.655358606 -2.939878162 -1.026631106 1.954547353e-38
-5.652200598 -2.894322481 -1.022814633 1.936108227e-38
-5.651341778 -2.850250408 -1.01947522 1.908449538e-38
-5.653692487 -2.808054877 -1.016771885 1.890010412e-38
-5.659286305 -2.767673035 -1.014704629 1.871571286e-38
-5.667266482 -2.728613342 -1.013114432 1.890010412e-38
-5.673196427 -2.688714439 -1.011206196 1.862351723e-38
-5.673482134 -2.646341658 -1.008343842 1.899229975e-38
-5.683332063 -2.608597127 -1.007230704 1.880790849e-38
-5.69293264 -2.570831461 -1.006117566 1.899229975e-38
-5.705893017 -2.534649492 -1.005640507 1.890010412e-38
-5.717719113 -2.498010058 -1.005004428 1.890010412e-38
-5.722053652 -2.458203415 -1.003096192 1.880790849e-38
-5.737938674 -2.423431401 -1.003255212 1.899229975e-38
-5.73355224 -2.380229212 -0.9999157983 2.323329873e-38
-5.73707956 -2.340528792 -0.998007562 2.341768999e-38
-5.776992005 -2.315567555 -1.002460113 2.31411031e-38
-5.783742209 -2.277183509 -1.001187956 1.908449538e-38
-5.790239151 -2.238803916 -0.9999157983 1.899229975e-38
-5.792791111 -2.199028888 -0.998007562 1.899229975e-38
-5.79229796 -2.158272839 -0.9956222667 1.880790849e-38
-5.791523277 -2.117605829 -0.9932369714 1.862351723e-38
-5.796043939 -2.079029804 -0.9918057942 1.862351723e-38
-5.7947216 -2.038512364 -0.9894204989 1.834693034e-38
-5.800587349 -2.000664882 -0.9883073611 1.843912597e-38
-5.809948168 -1.964086957 -0.987830302 1.834693034e-38
-5.812518203 -1.925296496 -0.9862401051 1.834693034e-38
-5.82046583 -1.888376611 -0.9856040264 1.816253908e-38
-5.829120304 -1.851730634 -0.9851269673 1.797814782e-38
-5.805490611 -1.805083224 -0.9792432388 1.871571286e-38
-3.782869554 -1.150788702 -0.6368738505 2.074401672e-38
-3.758632143 -1.118265066 -0.6316262008 1.94532779e-38
-3.788174733 -1.101798893 -0.6354426733 2.046742983e-38
-5.834745746 -1.658287046 -0.9770169632 1.926888664e-38
-5.833395321 -1.619285646 -0.975108727 1.834693034e-38
-5.84036254 -1.582687435 -0.9746316679 1.85313216e-38
-5.853781675 -1.54783136 -0.9752677466 1.807034345e-38
-3.781949413 -0.9752182414 -0.6290818858 2.074401672e-38
-3.768712086 -0.9471813645 -0.6259014921 1.816253908e-38
-3.779247719 -0.9252129816 -0.6266965905 2.03752342e-38
-5.865994834 -1.397984249 -0.9712922544 1.963766916e-38
-5.863882861 -1.359512079 -0.9695430379 1.862351723e-38
-5.871151169 -1.323289303 -0.9693840182 1.862351723e-38
-5.879160196 -1.287239686 -0.9693840182 1.834693034e-38
-5.886947877 -1.251141606 -0.9693840182 1.85313216e-38
-5.891613074 -1.214398489 -0.9689069591 1.843912597e-38
-5.89314466 -1.177065128 -0.967952841 1.862351723e-38
-5.897348096 -1.140321026 -0.9674757819 1.85313216e-38
-5.904233959 -1.104114112 -0.9674757819 1.862351723e-38
-5.911869078 -1.068041149 -0.9676348016 1.871571286e-38
-5.917338559 -1.031576941 -0.9674757819 1.843912597e-38
-5.923556804 -0.9952494153 -0.9674757819 1.843912597e-38
-5.930526645 -0.9590420263 -0.9676348016 1.843912597e-38
-5.947030766 -0.9243028144 -0.9693840182 1.788595219e-38
-5.957472604 -0.8885232983 -0.9701791166 1.677960464e-38
-5.960857633 -0.8516729246 -0.9698610773 1.594984397e-38
-5.962058435 -0.8145471898 -0.9692249985 1.668740901e-38
-3.888548357 -0.506975362 -0.6316262008 2.092840798e-38
-3.868071784 -0.4801870639 -0.6278097283 1.991425605e-38
-3.873886789 -0.4567908241 -0.6282867874 2.120499487e-38
-5.972403374 -0.6671088595 -0.967952841 1.908449538e-38
-5.975402421 -0.6303467499 -0.9677938213 1.936108227e-38
-5.977192782 -0.59347541 -0.9674757819 1.862351723e-38
-6.00431435 -0.5589852784 -0.9712922544 2.03752342e-38
-3.881157936 -0.3373177343 -0.6274916889 2.065182109e-38
-3.883154617 -0.313497047 -0.6274916889 2.009864731e-38
-3.900757781 -0.2908390708 -0.6300360039 2.22191468e-38
-5.993569735 -0.4099142835 -0.9676348016 1.890010412e-38
-5.994986725 -0.3730693947 -0.9674757819 1.936108227e-38
-5.998148709 -0.3363330972 -0.9676348016 1.890010412e-38
-6.002071592 -0.2996212635 -0.967952841 1.899229975e-38
-6.00774237 -0.2629602921 -0.9685889198 1.908449538e-38
-6.008256193 -0.2260554086 -0.9684299001 1.908449538e-38
-6.013477285 -0.1893094458 -0.9690659788 1.880790849e-38
-6.016499582 -0.1524578981 -0.9693840182 1.880790849e-38
-6.017321787 -0.1155384807 -0.9693840182 1.880790849e-38
-6.020879017 -0.07865340173 -0.9698610773 1.890010412e-38
-6.027171794 -0.04174953345 -0.9708151954 1.890010412e-38
-6.031263605 -0.004769839793 -0.9714512741 1.899229975e-38
-6.033153858 0.03224794183 -0.9717693135 1.899229975e-38
-6.041727309 0.0693680828 -0.9732004907 1.899229975e-38
-6.047110674 0.1065424699 -0.9741546088 1.890010412e-38
-6.056213075 0.1438793217 -0.9757448057 1.908449538e-38
-6.06804509 0.1814203907 -0.9778120617 1.926888664e-38
-3.904114097 0.1407053601 -0.6292409055 2.157377739e-38
-3.868653318 0.1632014921 -0.6236752164 1.954547353e-38
-3.885329342 0.1877939723 -0.6265375708 2.148158176e-38
-6.151474228 0.3351709411 -0.9922828533 2.028303857e-38
-6.161127439 0.3736265013 -0.9941910895 1.963766916e-38
-6.179405604 0.4128053756 -0.997530503 2.028303857e-38
-3.912044155 0.2854592106 -0.6317852205 2.22191468e-38
-3.908250571 0.3093019082 -0.6314671811 2.12971905e-38
-3.92496949 0.3348712856 -0.6344885552 2.166597302e-38
-11.4883197 1.051205272 -1.858145055 2.341768999e-38
-11.43448867 1.117068831 -1.85051211 2.31411031e-38
-11.40483344 1.184862043 -1.846854657 2.31411031e-38
-11.40127395 1.255250655 -1.847490735 2.31411031e-38
-11.40218323 1.326210494 -1.848921913 2.31411031e-38
-11.38599155 1.395187385 -1.847649755 2.323329873e-38
-11.35077835 1.461619857 -1.843356224 2.332549436e-38
-11.37877549 1.536259 -1.849398972 2.323329873e-38
-11.35838172 1.604529886 -1.847649755 2.323329873e-38
-11.33367213 1.672032036 -1.84526446 2.31411031e-38
-11.32027198 1.741092421 -1.844787401 2.323329873e-38
-11.30840087 1.810363463 -1.844628381 2.31411031e-38
-11.30681867 1.881336872 -1.846218578 2.323329873e-38
-11.28727917 1.949334655 -1.84494642 2.323329873e-38
-11.25372566 2.014727767 -1.841447987 2.332549436e-38
-4.033418413 0.7476636899 -0.6607268037 2.286451621e-38
-4.014210666 0.7696097643 -0.6583415084 2.102060361e-38
-4.001665205 0.792691274 -0.6570693509 2.175816865e-38
-3.981249823 0.8140656157 -0.6545250359 2.341768999e-38
-11.17503612 2.356540947 -1.839539751 2.323329873e-38
-11.15457772 2.423807504 -1.838585633 2.332549436e-38
-11.14816665 2.494145041 -1.84001681 2.341768999e-38
-4.019723813 0.9252556533 -0.6643842566 2.286451621e-38
-4.01877458 0.9510395886 -0.665179355 2.157377739e-38
-4.024375379 0.9784794104 -0.6670875913 2.194255991e-38
-4.001053991 0.9988497378 -0.6642252369 2.341768999e-38
-10.96886111 2.809948769 -1.823796802 2.31411031e-38
-10.94759362 2.876196069 -1.823160723 2.323329873e-38
-10.96024556 2.951530193 -1.828249353 2.323329873e-38
-10.93621867 3.017150036 -1.827295235 2.323329873e-38
-10.93650174 3.089564637 -1.830475629 2.332549436e-38
-10.93061662 3.160450749 -1.832701904 2.332549436e-38
-10.90628507 3.226060057 -1.831906806 2.332549436e-38
-10.91557972 3.301780188 -1.836836416 2.31411031e-38
-10.90831995 3.372777684 -1.839062692 2.323329873e-38
-10.89024386 3.440538641 -1.839539751 2.31411031e-38
-10.88584034 3.512752564 -1.842402105 2.323329873e-38
-10.87814693 3.58411493 -1.844787401 2.323329873e-38
-4.031327858 1.355712677 -0.685056816 2.258792932e-38
-4.020131987 1.379461622 -0.6845797569 2.111279924e-38
-4.011592091 1.40410272 -0.6845797569 2.175816865e-38
-10.98403517 3.920354528 -1.878499575 2.31411031e-38
-11.00245108 4.003205578 -1.88581448 2.295671184e-38
-11.02211357 4.087116144 -1.893447425 2.295671184e-38
-11.00791072 4.158856743 -1.895355662 2.286451621e-38
-11.0171985 4.239796027 -1.90139841 2.31411031e-38
-4.021537249 1.576023214 -0.6957111351 2.166597302e-38
-4.017293133 1.602864438 -0.6966652532 2.12971905e-38
-4.014700267 1.630455807 -0.6979374107 2.258792932e-38
-11.10873853 4.591100825 -1.936064702 2.323329873e-38
-11.11949286 4.675631744 -1.942902548 2.31411031e-38
-11.15322749 4.770561654 -1.953874907 2.323329873e-38
-11.15543234 4.852690582 -1.959440596 2.323329873e-38
-11.13989308 4.927437611 -1.961984911 2.332549436e-38
-11.09684323 4.990029305 -1.959758635 2.341768999e-38
-11.02471158 5.039144968 -1.95244373 2.341768999e-38
-4.13401037 1.920314187 -0.7341938996 2.323329873e-38
-4.106078963 1.938058492 -0.7313315452 2.102060361e-38
-4.099451269 1.965777709 -0.7322856633 2.138938613e-38
-10.9560947 5.420044924 -1.968822757 2.350988562e-38
-10.94645133 5.499134428 -1.973116289 2.350988562e-38
-10.91074426 5.565299876 -1.97279825 2.341768999e-38
-10.8912948 5.63985993 -1.975501584 2.350988562e-38
-10.80055452 5.677182696 -1.965324324 2.341768999e-38
-10.69583131 5.706170008 -1.952602749 2.341768999e-38
-4.165619599 2.255279201 -0.7629764631 2.341768999e-38
-4.13785827 2.273190684 -0.7604321481 2.111279924e-38
-4.132455996 2.303343957 -0.762022345 2.12971905e-38
-10.5714803 5.977631085 -1.956101182 2.341768999e-38
-10.54402367 6.04778726 -1.957850399 2.341768999e-38
-10.47514189 6.094001441 -1.95196667 2.341768999e-38
-10.41204331 6.14311049 -1.94719608 2.332549436e-38
-10.31739045 6.172920239 -1.936541761 2.341768999e-38
-4.152919521 2.519433646 -0.7823768651 2.31411031e-38
-4.120563761 2.534523061 -0.7791964713 2.009864731e-38
-4.111636586 2.563937851 -0.7804686288 2.120499487e-38
-10.18031693 6.435340641 -1.939881174 2.341768999e-38
-10.08993143 6.465193661 -1.930180973 2.341768999e-38
-10.07739529 6.544727744 -1.935428623 2.332549436e-38
-10.03292454 6.603724269 -1.934633524 2.341768999e-38
-9.971682911 6.651464537 -1.930658032 2.350988562e-38
-9.92004928 6.705336972 -1.928590776 2.332549436e-38
-9.899082818 6.780026252 -1.932566269 2.341768999e-38
-9.849184015 6.835009485 -1.930976072 2.341768999e-38
-9.794137685 6.886228791 -1.928431757 2.341768999e-38
-4.190328175 2.984796026 -0.8286515943 2.166597302e-38
-4.169533125 3.008718076 -0.8281745352 2.009864731e-38
-4.227509496 3.090175999 -0.8434404253 2.166597302e-38
-4.22037073 3.124869718 -0.8458257206 2.046742983e-38
-4.208225932 3.156037746 -0.8472568978 2.332549436e-38
-9.503376942 7.218767386 -1.922229989 2.341768999e-38
-9.455774504 7.274535131 -1.92159391 2.341768999e-38
-9.372021035 7.302078366 -1.913642926 2.341768999e-38
-9.337890702 7.368008309 -1.915869201 2.332549436e-38
-9.262425347 7.401130182 -1.909667433 2.341768999e-38
-9.24139832 7.477696658 -1.914756063 2.341768999e-38
-9.191523723 7.531131461 -1.913960965 2.341768999e-38
-9.128424598 7.573519214 -1.910462532 2.341768999e-38
-9.065151985 7.615416693 -1.906964099 2.341768999e-38
-8.99494132 7.651066361 -1.902034488 2.341768999e-38
-4.307464402 3.709707037 -0.9156353636 2.240353806e-38
-4.240718126 3.697785271 -0.906253202 2.074401672e-38
-4.211288024 3.717855603 -0.9048220249 2.240353806e-38
-8.776493928 7.844507547 -1.89599174 2.341768999e-38
-8.753085315 7.920734218 -1.90139841 2.341768999e-38
-8.660641717 7.934278182 -1.891857228 2.341768999e-38
-8.595146025 7.971828048 -1.888199776 2.341768999e-38
-8.530955683 8.010225062 -1.884860362 2.332549436e-38
-8.481645273 8.062419232 -1.884860362 2.332549436e-38
-8.438417976 8.120471064 -1.886291539 2.332549436e-38
-4.342014644 4.230034184 -0.9763808845 2.258792932e-38
-4.310354481 4.251050602 -0.975108727 2.074401672e-38
-8.248392019 8.235355807 -1.877386437 2.332549436e-38
-8.193539346 8.281600977 -1.876432319 2.341768999e-38
-8.154300978 8.343723015 -1.879135653 2.350988562e-38
-2.402703016 2.488886662 -0.5572049868 2.341768999e-38
-2.340374378 2.45428252 -0.5462326284 2.268012495e-38
-2.323240322 2.466440607 -0.5457555693 2.31411031e-38
-2.343033441 2.518234907 -0.5540245931 2.350988562e-38
-7.886504868 8.58120523 -1.877227417 2.341768999e-38
-7.82972157 8.625048385 -1.876273299 2.341768999e-38
-4.341453166 4.841815293 -1.047462685 2.194255991e-38
-4.317553763 4.875014582 -1.048893862 2.212695117e-38
-4.418864858 5.051518794 -1.081015839 2.22191468e-38
-4.391658852 5.083019726 -1.081969957 2.203475554e-38
-7.511478574 8.802585991 -1.863869763 2.332549436e-38
-7.449054449 8.838695789 -1.861802507 2.332549436e-38
-7.39341782 8.882718306 -1.861484468 2.341768999e-38
-2.435600723 2.963006547 -0.617791488 2.350988562e-38
-2.441641284 3.007789264 -0.6239932558 2.185036428e-38
-2.40708441 3.002686094 -0.6198587439 2.304890747e-38
-2.43947567 3.081648554 -0.633057378 2.341768999e-38
-2.46794654 3.15722997 -0.6454609137 2.323329873e-38
-2.453353557 3.178565975 -0.6467330712 2.295671184e-38
-2.4062764 3.157438724 -0.6394181655 2.231134243e-38
-2.387451021 3.172932815 -0.6395771852 2.203475554e-38
-2.358517389 3.174841862 -0.6370328702 2.22191468e-38
-2.331402187 3.178904137 -0.6349656143 2.194255991e-38
-2.304905192 3.183553268 -0.633057378 2.212695117e-38
-2.278439182 3.187997279 -0.6311491418 2.212695117e-38
-2.250298316 3.189816533 -0.6287638464 2.194255991e-38
-2.223913704 3.193841555 -0.6268556102 2.203475554e-38
-2.195887145 3.195222289 -0.6244703149 2.194255991e-38
-2.167927686 3.196379792 -0.6220850195 2.194255991e-38
-2.143881059 3.203058132 -0.620812862 2.194255991e-38
-2.113305 3.199676251 -0.6176324683 2.185036428e-38
-2.089320051 3.205965953 -0.6163603108 2.185036428e-38
-2.068007418 3.216234155 -0.6158832517 2.166597302e-38
-2.041359003 3.218024758 -0.6138159958 2.185036428e-38
-2.007434595 3.207893033 -0.6095224642 2.240353806e-38
-1.978379121 3.205028013 -0.6066601098 2.258792932e-38
-1.971511558 3.238188744 -0.610635602 2.286451621e-38
-1.944490064 3.238374975 -0.6084093264 2.31411031e-38
-1.921565 3.245148089 -0.6074552082 2.332549436e-38
-1.890665252 3.238120615 -0.6039567751 2.341768999e-38
-1.838744217 3.194044992 -0.5936204954 2.350988562e-38
-1.811314424 3.191529102 -0.5910761804 2.350988562e-38
-1.789769361 3.199136621 -0.5904401016 2.350988562e-38
-1.767722475 3.205735488 -0.5896450032 2.350988562e-38
-1.733876625 3.190498044 -0.5848744125 2.350988562e-38
-1.681232352 3.186213084 -0.5802628416 2.350988562e-38
-1.658462867 3.190337058 -0.5791497038 2.350988562e-38
-1.646505901 3.2153921 -0.5818530385 2.350988562e-38
-1.608680797 3.238892021 -0.5824891172 2.350988562e-38
-1.592246938 3.255796901 -0.5837612747 2.350988562e-38
-1.575237776 3.271732243 -0.5848744125 2.350988562e-38
-1.525371197 3.270237691 -0.5812169597 2.350988562e-38
-1.476036012 3.215829194 -0.5699265619 2.350988562e-38
-1.303550185 2.983708486 -0.5244469311 2.350988562e-38
-1.363157188 3.173072872 -0.5562508687 2.350988562e-38
-1.348655516 3.193200616 -0.5583181247 2.350988562e-38
-1.32411606 3.189561981 -0.5562508687 2.350988562e-38
-1.329133941 3.257959138 -0.5667461681 2.350988562e-38
-1.309485776 3.266969622 -0.5669051878 2.350988562e-38
-1.289053689 3.274024338 -0.5667461681 2.350988562e-38
-1.271432695 3.288318067 -0.5678593059 2.350988562e-38
-1.240370023 3.267444317 -0.5629296956 2.350988562e-38
-1.213748389 3.257415927 -0.5599083215 2.350988562e-38
-0.9750261643 2.771631546 -0.4732425916 2.350988562e-38
-1.110727218 3.285632311 -0.558636164 2.350988562e-38
-1.087131301 3.282076547 -0.5568869475 2.350988562e-38
-1.063925642 3.279294398 -0.5552967506 2.350988562e-38
-1.037208281 3.265060122 -0.5517983174 2.341768999e-38
-0.9884281636 3.178972774 -0.536214388 2.03752342e-38
-0.9749378446 3.204813083 -0.5395538015 2.341768999e-38
-0.9822826827 3.301577932 -0.5548196915 2.249573369e-38
-0.9628332665 3.310386929 -0.5552967506 1.724058278e-38
-0.9387243403 3.302937127 -0.5530704749 1.982206042e-38
-0.9480162214 3.415180887 -0.57088068 2.341768999e-38
-0.9332407226 3.443803266 -0.5746971525 2.341768999e-38
-0.9378348826 3.546820921 -0.5909171607 2.350988562e-38
-0.9577155885 3.714073172 -0.617791488 2.341768999e-38
-0.9601762307 3.820416977 -0.6344885552 2.350988562e-38
-0.9789744058 3.998848766 -0.6631120991 2.350988562e-38
-0.9967618542 4.182450475 -0.6925307413 2.332549436e-38
-0.982006101 4.235614256 -0.7003227061 2.31411031e-38
-0.9592544998 4.256006728 -0.7027080014 2.323329873e-38
-7.7639811 35.46013158 -5.846835889 2.332549436e-38
-1.017168274 4.78604227 -0.7881015738 2.350988562e-38
-1.02784392 4.986549914 -0.8200645311 2.350988562e-38
-1.084245798 5.428431429 -0.8916233907 2.31411031e-38
-1.120640929 5.795569406 -0.9507787147 2.341768999e-38
-1.092136543 5.840184083 -0.9569804825 2.350988562e-38
-1.087699425 6.020682445 -0.9854450067 2.350988562e-38
-1.94073466 11.13245515 -1.820139349 2.341768999e-38
-1.870754818 11.13441742 -1.818549152 2.332549436e-38
-1.80176967 11.1417881 -1.817913073 2.332549436e-38
-1.730338536 11.13312256 -1.81473268 2.332549436e-38
-1.66461585 11.16110668 -1.817595034 2.332549436e-38
-1.592330933 11.14472202 -1.813301503 2.323329873e-38
-1.516300642 11.09852584 -1.80423738 2.341768999e-38
-1.453533591 11.14873834 -1.810916207 2.323329873e-38
-1.378530948 11.10454043 -1.802329144 2.341768999e-38
-1.305281803 11.06964866 -1.795332278 2.341768999e-38
-1.231197787 11.02250362 -1.786427175 2.341768999e-38
-1.174624136 11.13490615 -1.803442282 2.332549436e-38
-1.106181977 11.14092146 -1.803283262 2.332549436e-38
-1.036337474 11.13177074 -1.800738947 2.332549436e-38
-0.965364717 11.10742944 -1.795809337 2.332549436e-38
-0.895444809 11.09149409 -1.792310904 2.332549436e-38
-0.8268579742 11.08988785 -1.791197766 2.323329873e-38
-0.7590655951 11.09869249 -1.791833845 2.332549436e-38
-0.6905830905 11.09722888 -1.790879727 2.332549436e-38
-0.6216496868 11.08647141 -1.788494431 2.323329873e-38
-0.5528251045 11.07430032 -1.785950116 2.323329873e-38
-0.4864182582 11.11299184 -1.791674825 2.323329873e-38
-0.4188149713 11.13155248 -1.79421914 2.323329873e-38
-0.3504430355 11.13193916 -1.793901101 2.323329873e-38
-0.2818070204 11.12104942 -1.791833845 2.323329873e-38
-0.2133368011 11.11072409 -1.789925608 2.341768999e-38
-0.1446041308 11.06937472 -1.783087762 2.332549436e-38
-0.0341176777 4.925398866 -0.7933492235 2.350988562e-38
-0.003900040885 4.93143914 -0.7943033417 2.350988562e-38
0.02683898415 5.021211016 -0.8087741333 2.350988562e-38
0.05742135743 5.001207606 -0.8055937395 2.350988562e-38
0.08528962985 4.84084733 -0.7798325501 2.341768999e-38
0.1150846987 4.844180863 -0.7804686288 2.341768999e-38
0.144068266 4.818712665 -0.7764931366 2.350988562e-38
0.1723880682 4.783205748 -0.7709274475 2.350988562e-38
0.2033984939 4.821513876 -0.7772882351 2.341768999e-38
0.2342181675 4.845814311 -0.7814227469 2.323329873e-38
0.2633562699 4.83344201 -0.7796735304 2.341768999e-38
0.2942039772 4.851444399 -0.7828539241 2.341768999e-38
0.5228230262 4.74873168 -0.7694962703 2.350988562e-38
0.461038984 2.669565079 -0.4363500239 2.350988562e-38
0.7844209815 2.380796057 -0.4037509879 2.350988562e-38
0.9520981383 2.429468103 -0.4202890354 2.350988562e-38
0.9614991426 2.409825691 -0.4179037401 2.350988562e-38
0.9721810997 2.393818774 -0.4161545236 2.350988562e-38
0.9834571623 2.379596721 -0.4147233464 2.350988562e-38
1.011419639 2.364625832 -0.4142462873 2.350988562e-38
1.068944934 2.377123184 -0.4198119764 2.350988562e-38
1.087204351 2.378600829 -0.4212431536 2.350988562e-38
1.10760162 2.384420536 -0.4234694292 2.350988562e-38
1.150867089 2.438291291 -0.434282768 2.341768999e-38
1.168367772 2.436525108 -0.4352368861 2.341768999e-38
1.188916347 2.440848829 -0.4373041421 2.332549436e-38
1.20299519 2.431738004 -0.4369861027 2.332549436e-38
1.215677445 2.419899741 -0.4361910042 2.332549436e-38
4.112907954 7.170655471 -1.331471848 2.350988562e-38
1.504046162 2.549228734 -0.4767410247 2.350988562e-38
1.534359465 2.564521342 -0.4813525956 2.350988562e-38
1.554674908 2.562655216 -0.4827837728 2.350988562e-38
1.571404298 2.554749532 -0.4831018122 2.350988562e-38
5.242920657 7.965479054 -1.535971167 2.332549436e-38
5.302106399 7.948764287 -1.538992541 2.332549436e-38
5.359072499 7.928350731 -1.541377836 2.332549436e-38
5.408176951 7.89613337 -1.541536856 2.332549436e-38
5.452584771 7.857123079 -1.540423718 2.323329873e-38
5.463214909 7.770215113 -1.529928418 2.332549436e-38
5.519381022 7.748609153 -1.532313714 2.323329873e-38
5.57144338 7.721001816 -1.533585871 2.323329873e-38
5.602983142 7.665150608 -1.52929234 2.323329873e-38
5.656372559 7.639355027 -1.531041556 2.341768999e-38
5.686554497 7.582389067 -1.526589005 2.332549436e-38
5.740735513 7.557574664 -1.528656261 2.332549436e-38
5.757501985 7.483865224 -1.520864296 2.332549436e-38
5.823337716 7.474097214 -1.526111946 2.323329873e-38
5.83056036 7.389396576 -1.516093706 2.332549436e-38
5.865930309 7.341141182 -1.513549391 2.332549436e-38
5.91024326 7.304242821 -1.513390371 2.332549436e-38
5.930547024 7.238057647 -1.507188603 2.332549436e-38
5.98556392 7.214449106 -1.509891938 2.323329873e-38
5.996696117 7.138278035 -1.501622914 2.332549436e-38
6.037184543 7.097588511 -1.500827816 2.323329873e-38
6.060648507 7.037220846 -1.495898205 2.323329873e-38
6.075164676 6.96715982 -1.488901339 2.323329873e-38
6.098197951 6.907548528 -1.484130748 2.332549436e-38
6.133887768 6.862639679 -1.482540551 2.323329873e-38
6.179855275 6.829265945 -1.48349467 2.323329873e-38
6.214306473 6.783210853 -1.481745453 2.323329873e-38
6.27595154 6.766668775 -1.486516044 2.323329873e-38
6.303161154 6.712918557 -1.48317663 2.323329873e-38
6.348313397 6.678410135 -1.484130748 2.31411031e-38
6.395333053 6.645734339 -1.485561926 2.31411031e-38
6.431856538 6.602125198 -1.484607807 2.31411031e-38
6.405692688 6.495054697 -1.469341917 2.323329873e-38
6.412639838 6.42279077 -1.461867992 2.323329873e-38
6.440699336 6.372212761 -1.459323677 2.323329873e-38
6.50862645 6.360865399 -1.465843484 2.31411031e-38
6.518411216 6.292695657 -1.459323677 2.31411031e-38
6.568331647 6.263482286 -1.461867992 2.323329873e-38
6.609514644 6.225769592 -1.462504071 2.323329873e-38
6.637471627 6.175681999 -1.460277795 2.323329873e-38
6.625809883 6.089410578 -1.449464456 2.31411031e-38
6.634540143 6.022760655 -1.443262689 2.323329873e-38
6.677250664 5.987211258 -1.444534846 2.31411031e-38
6.707210026 5.940236567 -1.443103669 2.304890747e-38
6.714551901 5.873619131 -1.436901901 2.332549436e-38
6.735524082 5.819399796 -1.433721507 2.332549436e-38
6.771855463 5.778602705 -1.433880527 2.31411031e-38
6.793596122 5.725490347 -1.431018173 2.31411031e-38
6.824046278 5.679908291 -1.430064054 2.323329873e-38
6.885462832 5.659872157 -1.435629743 2.31411031e-38
6.90703085 5.606939249 -1.432926409 2.323329873e-38
6.910491778 5.539752243 -1.426565621 2.323329873e-38
6.976090622 5.522369943 -1.433085428 2.304890747e-38
6.993509401 5.466693113 -1.429746015 2.31411031e-38
7.006600435 5.407994747 -1.425611503 2.323329873e-38
7.041221844 5.366098106 -1.425929543 2.323329873e-38
7.066915006 5.317450584 -1.424498365 2.332549436e-38
7.101786801 5.275754948 -1.424975424 2.31411031e-38
7.136412894 5.233831505 -1.425452483 2.31411031e-38
7.152399003 5.178365245 -1.42227209 2.323329873e-38
7.147089894 5.107974766 -1.414957184 2.323329873e-38
7.178297296 5.064024891 -1.414957184 2.323329873e-38
7.180877145 5.000138802 -1.409391495 2.332549436e-38
7.269191731 4.995685192 -1.420681893 2.31411031e-38
7.304610262 4.95431327 -1.421636011 2.323329873e-38
7.303694541 4.888532066 -1.415593263 2.323329873e-38
7.329433473 4.840904887 -1.414798164 2.332549436e-38
7.38712124 4.814168569 -1.420204834 2.323329873e-38
7.388286929 4.750596952 -1.414798164 2.332549436e-38
7.469819128 4.738491365 -1.424816405 2.323329873e-38
7.430963277 4.650146561 -1.41193581 2.332549436e-38
7.460196267 4.604982069 -1.41209483 2.332549436e-38
7.529632107 4.584277786 -1.419886794 2.323329873e-38
7.52206963 4.516644852 -1.413207967 2.332549436e-38
7.571729037 4.48348399 -1.417342479 2.31411031e-38
7.553909598 4.410556643 -1.408914436 2.304890747e-38
7.574840695 4.360675744 -1.407801298 2.295671184e-38
7.59029251 4.307780336 -1.405734042 2.286451621e-38
7.595903165 4.249557416 -1.40191757 2.277232058e-38
7.614054057 4.198579245 -1.400486392 2.304890747e-38
7.63533545 4.149424159 -1.399691294 2.31411031e-38
7.653689458 4.098767815 -1.398419136 2.323329873e-38
7.700524304 4.063246947 -1.402394629 2.323329873e-38
7.742830657 4.025028358 -1.405575022 2.332549436e-38
7.733110271 3.959893942 -1.399373255 2.323329873e-38
7.761669685 3.914592863 -1.400168353 2.332549436e-38
7.759016512 3.853719353 -1.395397762 2.323329873e-38
7.778081946 3.803869695 -1.394602664 2.332549436e-38
7.8244037 3.767208123 -1.398737176 2.332549436e-38
7.848263715 3.719550389 -1.398896196 2.332549436e-38
7.828886402 3.651709432 -1.39142227 2.332549436e-38
7.847556398 3.601956184 -1.390786191 2.332549436e-38
7.846115477 3.543172173 -1.38665168 2.341768999e-38
7.865903751 3.494161017 -1.38633364 2.332549436e-38
7.926097649 3.462826917 -1.393171487 2.332549436e-38
7.900026198 3.393863909 -1.384902463 2.332549436e-38
7.918882871 3.344558125 -1.384584424 2.332549436e-38
7.921930958 3.288713645 -1.38156305 2.332549436e-38
7.942875127 3.240416614 -1.381722069 2.332549436e-38
7.96444123 3.192353683 -1.382040109 2.332549436e-38
7.979286027 3.141616258 -1.38124501 2.332549436e-38
7.994729056 3.091172964 -1.380608931 2.332549436e-38
8.01908368 3.044162361 -1.38156305 2.332549436e-38
8.002456054 2.981801638 -1.375520301 2.332549436e-38
8.064181547 2.948577954 -1.382994227 2.323329873e-38
8.100707875 2.905708322 -1.38617462 2.31411031e-38
8.074612065 2.840550015 -1.378700695 2.31411031e-38
8.027490231 2.768739928 -1.367728337 2.332549436e-38
8.058356957 2.724174697 -1.370113632 2.332549436e-38
8.093664495 2.680886898 -1.373294026 2.323329873e-38
8.097753606 2.627213862 -1.37122677 2.332549436e-38
8.083611385 2.56791249 -1.36613814 2.332549436e-38
8.126555548 2.52676476 -1.370749711 2.332549436e-38
8.115459477 2.468808123 -1.366297159 2.323329873e-38
8.171145154 2.431072217 -1.373135006 2.323329873e-38
8.197284013 2.384197954 -1.375043242 2.323329873e-38
8.224104519 2.337364228 -1.377110498 2.323329873e-38
8.244950627 2.288706571 -1.378223636 2.323329873e-38
8.25312122 2.236524045 -1.377269518 2.332549436e-38
8.2495084 2.181298948 -1.374407164 2.323329873e-38
8.284725382 2.136309727 -1.378064616 2.323329873e-38
8.298635073 2.085676038 -1.378223636 2.323329873e-38
8.296891973 2.031195818 -1.375838341 2.323329873e-38
8.292872527 1.97635789 -1.373135006 2.323329873e-38
8.297148998 1.923652732 -1.371862849 2.323329873e-38
8.309759233 1.872923246 -1.372021868 2.323329873e-38
8.335561282 1.825067685 -1.374407164 2.323329873e-38
8.358191253 1.776350163 -1.3763154 2.323329873e-38
8.371834235 1.725629758 -1.376792459 2.323329873e-38
8.360965547 1.669974445 -1.373294026 2.323329873e-38
8.372024245 1.618828518 -1.373453045 2.323329873e-38
8.375006421 1.56615792 -1.372339908 2.323329873e-38
8.393202459 1.516320047 -1.373771085 2.323329873e-38
8.379978473 1.460892 -1.370113632 2.31411031e-38
8.365417499 1.405519884 -1.366297159 2.323329873e-38
8.379731814 1.355109834 -1.367251278 2.323329873e-38
8.405448996 1.306396498 -1.370113632 2.323329873e-38
8.38987127 1.251301783 -1.366297159 2.323329873e-38
8.417915526 1.202731415 -1.369636573 2.323329873e-38
8.439809709 1.153062043 -1.372021868 2.332549436e-38
8.451620837 1.101892825 -1.372816967 2.332549436e-38
8.47977743 1.052689726 -1.3763154 2.31411031e-38
8.441955266 0.9954363442 -1.369159514 2.323329873e-38
8.495981735 0.9489889296 -1.376951479 2.31411031e-38
8.500662859 0.896737128 -1.376792459 2.31411031e-38
8.494215777 0.8433905975 -1.374884223 2.323329873e-38
8.478587307 0.7893333376 -1.371544809 2.323329873e-38
8.49900804 0.7386625803 -1.374089124 2.323329873e-38
8.489603366 0.6853874871 -1.371862849 2.323329873e-38
8.529092544 0.6359260148 -1.377587557 2.323329873e-38
8.661865612 0.5924052932 -1.398419136 2.341768999e-38
1.898530023 0.001501457181 -0.3057948601 2.350988562e-38
1.901465281 -0.0101635634 -0.3062719191 2.350988562e-38
1.901367124 -0.0218305437 -0.3062719191 2.350988562e-38
1.915017092 -0.03374018799 -0.3084981948 2.350988562e-38
1.905891044 -0.04527884131 -0.3070670176 2.350988562e-38
1.923937955 -0.06933926012 -0.3100883916 2.350988562e-38
1.932353863 -0.08151752242 -0.3115195688 2.350988562e-38
1.923928311 -0.09299138072 -0.3102474113 2.350988562e-38
8.802173749 -0.5337862939 -1.420363853 2.350988562e-38
1.980191374 -0.1689463403 -0.320106632 2.350988562e-38
2.008429565 -0.1962093917 -0.3250362423 2.350988562e-38
2.043704297 -0.2377072907 -0.3313970298 2.350988562e-38
8.824176799 -1.191360269 -1.434198566 2.350988562e-38
8.835274461 -1.248105784 -1.43721994 2.350988562e-38
8.80596242 -1.299124512 -1.433721507 2.350988562e-38
8.814413996 -1.355683807 -1.436424842 2.350988562e-38
8.790331953 -1.407245461 -1.433880527 2.350988562e-38
8.834121636 -1.469905837 -1.44246759 2.350988562e-38
8.834664899 -1.525763489 -1.444057787 2.350988562e-38
8.762856322 -1.624346601 -1.435470724 2.350988562e-38
8.778904195 -1.683103093 -1.439764255 2.350988562e-38
8.75388475 -1.734060122 -1.43737896 2.350988562e-38
8.769196038 -1.793080387 -1.441672492 2.350988562e-38
8.736776164 -1.842371743 -1.438174058 2.350988562e-38
8.736632545 -1.954619932 -1.441990531 2.350988562e-38
8.696573372 -2.001767796 -1.43737896 2.350988562e-38
8.675480387 -2.05304506 -1.435947783 2.350988562e-38
8.685743666 -2.111836134 -1.439764255 2.350988562e-38
8.655380383 -2.160786744 -1.436901901 2.350988562e-38
8.680214794 -2.223654636 -1.443262689 2.350988562e-38
8.63871605 -2.269598415 -1.438651118 2.350988562e-38
8.660853348 -2.332317283 -1.444693866 2.350988562e-38
8.635910557 -2.382527145 -1.442944649 2.350988562e-38
8.608777888 -2.431982032 -1.440877393 2.350988562e-38
8.619300988 -2.492162812 -1.445170925 2.350988562e-38
8.609527465 -2.546683174 -1.446125043 2.350988562e-38
8.572949459 -2.59317374 -1.44262661 2.350988562e-38
8.580457118 -2.653018469 -1.446602102 2.350988562e-38
8.554602867 -2.702643035 -1.445011905 2.350988562e-38
8.520006922 -2.749321617 -1.441990531 2.350988562e-38
8.529232348 -2.810198207 -1.446443082 2.350988562e-38
8.489370085 -2.854926975 -1.44262661 2.341768999e-38
8.500641458 -2.916896433 -1.44755622 2.350988562e-38
8.5179938 -2.981394416 -1.453598968 2.350988562e-38
8.488382046 -3.029621306 -1.451690732 2.341768999e-38
