# .PCD v0.7 - Point Cloud Data file format
VERSION 0.7
FIELDS x y z rgb
SIZE 4 4 4 4
TYPE F F F F
COUNT 1 1 1 1
WIDTH 902
HEIGHT 1
VIEWPOINT 0 0 0 1 0 0 0
POINTS 902
DATA ascii
-17.23521436 16.62297399 4.745634058 2.332549436e-38
-17.07814886 16.67496237 4.730470424 2.341768999e-38
-16.01766117 15.83265101 4.463551594 2.332549436e-38
-15.88831642 15.89871871 4.454608938 2.323329873e-38
-15.7305113 15.93517494 4.437695655 2.332549436e-38
-3.097634711 3.922065942 0.9904963141 3.042455785e-39
-3.025251803 3.879118583 0.9749438695 1.751716967e-39
-2.935559883 3.812117249 0.9535592582 5.531737792e-40
-2.899646144 3.813659943 0.9494767415 2.765868896e-40
-2.862646663 3.813337101 0.9450054137 2.765868896e-40
-2.831601587 3.820585217 0.9424781415 4.609781493e-40
-2.804051005 3.832346172 0.9411173026 2.765868896e-40
-2.778760301 3.847093815 0.9405340859 1.198543188e-39
-2.753394254 3.861675471 0.9399508692 1.843912597e-40
-2.753923707 3.912990643 0.9483103082 5.531737792e-40
-2.701321211 3.888728117 0.9383956248 7.375650389e-40
-2.673526857 3.899566637 0.9370347859 7.375650389e-40
-2.64295285 3.906148558 0.9347019192 7.375650389e-40
-2.609130753 3.907607759 0.9312026191 7.375650389e-40
-2.56621593 3.894874626 0.9243984246 3.687825195e-40
-2.509120711 3.859558051 0.9123452801 1.843912597e-40
-2.503397922 3.902953936 0.918955069 9.219562986e-41
-2.430097907 3.840323814 0.9006809467 5.531737792e-40
-2.434537238 3.900096223 0.9111788468 2.765868896e-40
-2.370959164 3.850644227 0.8962096188 5.531737792e-40
-2.340159001 3.853381781 0.893487941 2.765868896e-40
-2.314454966 3.864302071 0.8927103188 8.297606688e-40
-10.88331224 20.68166773 4.631712401 2.341768999e-38
-10.87765173 20.98231643 4.684007496 2.332549436e-38
-3.0541053 5.980707385 1.330900445 2.341768999e-38
-3.010739678 5.986189533 1.327984361 2.341768999e-38
-2.721878292 5.495600802 1.215423544 2.277232058e-38
-2.694126114 5.524541854 1.218145222 2.286451621e-38
-2.719188724 5.663885181 1.245167594 2.31411031e-38
-2.800058305 5.92524193 1.298823528 2.341768999e-38
-2.987437963 6.423495234 1.403996934 2.341768999e-38
-3.004298497 6.564794791 1.430824901 2.295671184e-38
-2.988929269 6.638560746 1.442878046 2.332549436e-38
-12.98897381 29.32855819 6.357061722 2.341768999e-38
-12.78644543 29.3564438 6.345980605 2.341768999e-38
-12.57904437 29.371228 6.332372216 2.341768999e-38
-12.38222158 29.40898419 6.324012777 2.332549436e-38
-12.18390932 29.44180679 6.314875716 2.350988562e-38
-11.9808574 29.46149201 6.303211382 2.341768999e-38
-11.78129887 29.48799413 6.293296699 2.350988562e-38
-11.58007519 29.50859264 6.282409988 2.341768999e-38
-11.38680309 29.54797068 6.275800199 2.341768999e-38
-11.1948726 29.58975891 6.269968032 2.350988562e-38
-3.052062207 8.219094683 1.737596871 2.341768999e-38
-2.998550941 8.229372253 1.735847221 2.332549436e-38
-2.954933379 8.267013562 1.739929737 2.332549436e-38
-2.904801284 8.286840463 1.740318548 2.332549436e-38
-2.863463511 8.332338111 1.746150715 2.332549436e-38
-2.837331512 8.424119887 1.76170316 2.332549436e-38
-9.756937767 29.56715427 6.170626792 2.332549436e-38
-9.567791677 29.60313058 6.165766653 2.341768999e-38
-7.928030238 28.68473506 5.898070201 2.350988562e-38
-7.594404095 28.8519586 5.912845023 2.350988562e-38
-2.820164935 11.89246674 2.422293243 2.350988562e-38
-2.755960114 11.94777997 2.430069465 2.332549436e-38
-2.684314897 11.97212257 2.43162471 2.332549436e-38
-2.608717494 11.97878328 2.429680654 2.323329873e-38
-2.53780495 12.00704092 2.432207927 2.332549436e-38
-2.48535432 12.12616866 2.453203727 2.350988562e-38
-2.213714074 22.55187186 4.490962778 8.850780467e-39
-2.07673409 22.5806592 4.494073267 2.304890747e-39
-1.936801226 22.57733942 4.490962778 1.475130078e-39
-1.798699869 22.59466536 4.492129211 2.212695117e-39
-1.659668545 22.60038521 4.491157183 1.843912597e-39
-1.521161456 22.61307942 4.4917404 2.397086376e-39
-1.382381573 22.62198741 4.4917404 2.858064526e-39
-1.239351555 22.55364709 4.476576766 2.31411031e-38
23.77319047 45.10477439 10.10481205 2.350988562e-38
24.03515737 44.93124248 10.09878548 2.350988562e-38
24.29635829 44.75705705 10.09295331 2.350988562e-38
24.53644994 44.5452724 10.07895611 2.350988562e-38
24.77629424 44.33479764 10.06554213 2.341768999e-38
25.01689952 44.12732554 10.05310018 2.350988562e-38
25.26616175 43.93642925 10.04474074 2.350988562e-38
25.52539081 43.76362535 10.04085263 2.350988562e-38
25.7759599 43.57663088 10.03404843 2.350988562e-38
26.03125076 43.39830467 10.0295771 2.350988562e-38
26.53199305 43.02716662 10.01830158 2.350988562e-38
26.78250413 42.84276516 10.01344144 2.350988562e-38
27.02650106 42.6486246 10.00663725 2.350988562e-38
27.52428189 42.27758597 9.998083403 2.350988562e-38
27.76696743 42.08334155 9.992251236 2.341768999e-38
28.25214174 41.6963898 9.981947742 2.350988562e-38
28.49523967 41.50446213 9.977670819 2.350988562e-38
28.73872692 41.3135375 9.973977114 2.350988562e-38
29.22302381 40.92901879 9.966978514 2.350988562e-38
29.47073503 40.74496518 9.966006486 2.350988562e-38
29.71670817 40.55862155 9.964840053 2.350988562e-38
29.96676556 40.37788283 9.965423269 2.350988562e-38
30.46357314 40.01178689 9.966589703 2.341768999e-38
31.43633649 39.25212258 9.966589703 2.350988562e-38
31.6815342 39.06458885 9.968144947 2.350988562e-38
31.92436884 38.87400758 9.96931138 2.341768999e-38
32.16856608 38.68493379 9.971255436 2.350988562e-38
32.40785398 38.4898244 9.972033058 2.341768999e-38
32.64914051 38.29696722 9.973782708 2.341768999e-38
32.90274029 38.11819151 9.979614875 2.341768999e-38
33.15472919 37.93700609 9.985252636 2.341768999e-38
33.41158284 37.76077433 9.992640047 2.350988562e-38
34.0147904 37.5048649 10.03463165 2.350988562e-38
16.5579706 15.94888283 4.556283045 2.350988562e-38
39.05606407 35.37507973 10.44346653 2.350988562e-38
14.74103857 12.2416418 3.797518155 2.341768999e-38
14.7840188 12.12483629 3.789353122 2.341768999e-38
14.84136719 12.02031273 3.785076199 2.341768999e-38
23.8107719 18.33572847 5.956003057 2.350988562e-38
51.81506656 35.99355217 12.50358222 2.350988562e-38
51.90630628 35.58675023 12.47267174 2.350988562e-38
52.06275334 35.22636178 12.45809132 2.350988562e-38
51.81497035 31.90405853 12.05955993 2.350988562e-38
52.35796789 30.92395771 12.0513949 2.350988562e-38
15.02322332 7.212536648 3.302756012 2.350988562e-38
13.70051449 6.474375198 3.003177048 2.341768999e-38
13.76221847 6.400529992 3.008037187 2.341768999e-38
14.85641604 6.79885812 3.238018961 2.341768999e-38
14.57585367 6.562596519 3.168032961 2.350988562e-38
14.58983658 6.46151795 3.1623952 2.341768999e-38
14.67687292 6.392635155 3.172698694 2.332549436e-38
14.73024838 6.308638098 3.175809183 2.332549436e-38
22.99112986 9.514424281 4.931291365 2.341768999e-38
22.86007513 9.296314668 4.890855009 2.341768999e-38
22.8374367 9.124210552 4.873941725 2.350988562e-38
22.79163486 8.944135312 4.852362709 2.341768999e-38
22.7765226 8.777312682 4.837587886 2.350988562e-38
22.75747147 8.609971938 4.822229847 2.341768999e-38
22.71975524 8.436708541 4.803178103 2.341768999e-38
22.22179353 8.09699426 4.68731239 2.350988562e-38
22.28491276 7.965443877 4.690228474 2.341768999e-38
22.2676438 7.805517749 4.676425679 2.341768999e-38
22.39582573 7.696474737 4.693338963 2.341768999e-38
22.39707796 7.543569645 4.68381309 2.341768999e-38
22.49697056 7.423830504 4.695088613 2.341768999e-38
22.5588997 7.291082011 4.698587913 2.341768999e-38
22.59386012 7.149566571 4.696643857 2.350988562e-38
22.61106735 7.002673229 4.691200502 2.341768999e-38
22.60854803 6.850149423 4.681869035 2.341768999e-38
22.64827315 6.710739681 4.681480224 2.350988562e-38
22.73990172 6.58638263 4.691978124 2.341768999e-38
22.76384143 6.442188338 4.688673229 2.341768999e-38
22.81712354 6.306310483 4.691589313 2.350988562e-38
22.96998302 6.197105068 4.715112385 2.350988562e-38
22.86338669 6.01809395 4.68556274 2.341768999e-38
22.96829154 5.895252015 4.699559941 2.341768999e-38
22.99546733 5.752067954 4.697810291 2.350988562e-38
23.0798868 5.622935998 4.70791938 2.341768999e-38
23.07386705 5.471708451 4.699754346 2.341768999e-38
23.07546433 5.322751126 4.693338963 2.341768999e-38
23.14789033 5.190076069 4.701503996 2.350988562e-38
23.18217565 5.048571774 4.702087213 2.350988562e-38
23.18008627 4.89933682 4.695477424 2.350988562e-38
23.32022039 4.779663892 4.717834063 2.341768999e-38
23.31350984 4.629414758 4.710641057 2.341768999e-38
23.39638404 4.496831939 4.721722174 2.341768999e-38
23.49683064 4.366811415 4.736496996 2.341768999e-38
23.47201164 4.213369872 4.726193502 2.341768999e-38
23.47615877 4.065586556 4.72191658 2.341768999e-38
23.53742946 3.927598127 4.729303991 2.341768999e-38
23.57173934 3.784811853 4.731442452 2.350988562e-38
23.58676316 3.638910613 4.729887207 2.350988562e-38
23.73770381 3.513217049 4.755743147 2.341768999e-38
23.66363465 3.354008732 4.736691402 2.341768999e-38
23.73820328 3.21612318 4.747578113 2.341768999e-38
23.6816094 3.060600963 4.73241448 2.341768999e-38
23.75446377 2.921942095 4.743301191 2.341768999e-38
23.7787654 2.776928905 4.74466203 2.341768999e-38
23.79730665 2.631188469 4.745050841 2.341768999e-38
23.85007701 2.488990412 4.752438252 2.341768999e-38
23.93323624 2.34931017 4.766046641 2.350988562e-38
23.91008245 2.199000608 4.75865923 2.341768999e-38
24.00619836 2.059376154 4.775183702 2.341768999e-38
23.97731378 1.90876875 4.767018669 2.341768999e-38
23.98661782 1.761467104 4.766629858 2.332549436e-38
24.11637698 1.622286926 4.790347336 2.341768999e-38
24.1366472 1.474939214 4.792485797 2.341768999e-38
24.04533965 1.321321956 4.77265643 2.350988562e-38
24.16958537 1.179447149 4.795790691 2.350988562e-38
24.10482513 1.02807188 4.781599086 2.341768999e-38
24.10283734 0.879861827 4.780043841 2.350988562e-38
15.44792158 0.3741668626 3.062470743 2.350988562e-38
16.08644045 0.2908829096 3.18863995 2.332549436e-38
14.54308171 0.173719513 2.882451197 2.341768999e-38
14.76653923 0.08577497596 2.926581259 2.341768999e-38
14.66869544 -0.004800319529 2.907140703 2.332549436e-38
14.66446625 -0.09478029306 2.906363081 2.341768999e-38
14.75482707 -0.1859073128 2.924442797 2.31411031e-38
14.49252935 -0.2715495803 2.872730919 2.332549436e-38
14.37978051 -0.3577124439 2.850763091 2.31411031e-38
14.37143224 -0.445755922 2.849596658 2.332549436e-38
14.35568341 -0.5334554462 2.847069386 2.332549436e-38
14.34429993 -0.6211907035 2.845514141 2.31411031e-38
14.33923862 -0.7091455273 2.845319736 2.31411031e-38
13.98007171 -0.7774005942 2.774944924 2.31411031e-38
14.36176543 -0.8870521956 2.851735119 2.323329873e-38
14.45881216 -0.9821377648 2.872147703 2.332549436e-38
13.97806742 -1.03568351 2.777861007 2.332549436e-38
13.93429395 -1.1184495 2.770473596 2.304890747e-38
14.03466939 -1.213220491 2.791858207 2.323329873e-38
13.99765881 -1.296598512 2.786026041 2.31411031e-38
14.0655805 -1.389986514 2.801189674 2.304890747e-38
14.28214037 -1.499932089 2.846097358 2.31411031e-38
14.42572882 -1.60456224 2.87661903 2.341768999e-38
14.39417889 -1.690529441 2.872342108 2.332549436e-38
16.23514137 -2.007807678 3.242101478 2.341768999e-38
16.03963947 -2.083630242 3.205553233 2.350988562e-38
24.30079863 -3.308543508 4.860527742 2.350988562e-38
24.37812385 -3.471555662 4.880162703 2.341768999e-38
24.26030842 -3.606791059 4.860916553 2.341768999e-38
24.35210461 -3.773305125 4.883856409 2.350988562e-38
24.35657763 -3.927183982 4.88949417 2.341768999e-38
24.32815262 -4.075910871 4.888716548 2.341768999e-38
22.70325223 -3.947041708 4.566975351 2.341768999e-38
22.34844776 -4.026783394 4.50048865 2.350988562e-38
21.54610124 -4.018865279 4.343797771 2.350988562e-38
21.14925332 -4.079284221 4.268757226 2.323329873e-38
21.11324306 -4.206868294 4.266618765 2.31411031e-38
15.09346141 -3.103819483 3.053916899 2.332549436e-38
15.07125384 -3.19576237 3.053333682 2.332549436e-38
15.04944466 -3.28775897 3.052944871 2.332549436e-38
21.02565381 -4.728696575 4.271090092 2.332549436e-38
20.9905092 -4.856291931 4.269923659 2.332549436e-38
20.98035678 -4.98976206 4.274006176 2.323329873e-38
20.97697912 -5.125152765 4.279643937 2.332549436e-38
20.97653461 -5.261644251 4.28605932 2.332549436e-38
20.98375338 -5.400523348 4.294224354 2.31411031e-38
21.01661259 -5.546697522 4.307832743 2.341768999e-38
21.0371028 -5.690404063 4.319108265 2.350988562e-38
3.579803017 -1.063253712 0.7401019564 2.350988562e-38
3.537545211 -1.074366919 0.7327145452 2.350988562e-38
3.459687867 -1.07395131 0.7179397229 2.332549436e-38
3.388516639 -1.074697385 0.7045257394 2.31411031e-38
3.326800779 -1.077634084 0.6930558115 2.332549436e-38
3.253071478 -1.075850529 0.6790586114 2.323329873e-38
3.201797542 -1.080732645 0.6697271447 2.31411031e-38
3.147805465 -1.084068388 0.6598124613 2.323329873e-38
3.095745748 -1.08743304 0.6502865889 2.31411031e-38
3.030836348 -1.085569536 0.6380390388 2.31411031e-38
2.97620424 -1.086651876 0.6279299499 2.304890747e-38
2.92811017 -1.089499819 0.6191816998 2.304890747e-38
2.898439313 -1.098753188 0.6143215609 2.31411031e-38
2.844974007 -1.098497258 0.6044068774 2.295671184e-38
2.793448507 -1.098345132 0.5948810051 2.277232058e-38
2.778460553 -1.112183955 0.5931313551 2.304890747e-38
2.664390666 -1.08553813 0.5701914994 2.341768999e-38
2.716578234 -1.126285215 0.5828278606 2.31411031e-38
2.678886867 -1.129970746 0.5762180716 2.268012495e-38
2.685424844 -1.152188368 0.579134155 2.304890747e-38
2.68010272 -1.169428724 0.5795229661 2.323329873e-38
2.673773426 -1.186249314 0.5797173717 2.268012495e-38
2.690587261 -1.213521979 0.5849663217 2.175816865e-38
2.688440711 -1.232460927 0.5861327551 2.194255991e-38
2.685273681 -1.251004888 0.5871047828 2.157377739e-38
2.68286674 -1.269975996 0.5882712162 2.138938613e-38
2.67502381 -1.28641385 0.5882712162 2.175816865e-38
2.673249882 -1.305817026 0.5896320551 2.175816865e-38
2.679246892 -1.32917018 0.592742544 2.166597302e-38
2.685933472 -1.353087149 0.5960474385 2.175816865e-38
2.692426861 -1.377135934 0.599352333 2.166597302e-38
2.695243466 -1.399506913 0.6018796052 2.194255991e-38
2.695283182 -1.420591973 0.6038236608 2.203475554e-38
2.695165295 -1.441730039 0.6057677163 2.194255991e-38
2.694889157 -1.462919969 0.6077117719 2.175816865e-38
2.700468534 -1.487473472 0.6110166664 2.212695117e-38
2.69814098 -1.507843463 0.6125719108 2.231134243e-38
2.694811534 -1.527756975 0.6139327497 2.212695117e-38
2.695590794 -1.550131273 0.6162656164 2.203475554e-38
2.693654572 -1.571089806 0.6180152664 2.203475554e-38
2.69409519 -1.593580967 0.6203481331 2.22191468e-38
2.696884433 -1.61765017 0.6232642165 2.22191468e-38
2.701993522 -1.643342479 0.6267635165 2.194255991e-38
2.704383457 -1.667613481 0.6296795999 2.231134243e-38
2.699922647 -1.687815648 0.6310404388 2.203475554e-38
2.696972647 -1.709075845 0.6327900888 2.203475554e-38
2.69716442 -1.73248375 0.635317361 2.22191468e-38
2.702924472 -1.759704425 0.6392054722 2.22191468e-38
2.707632649 -1.786520385 0.6428991778 2.22191468e-38
2.70966664 -1.811824277 0.6460096667 2.22191468e-38
2.713115692 -1.838320523 0.6495089667 2.240353806e-38
2.713106353 -1.862706124 0.6522306445 2.258792932e-38
2.716120495 -1.889401148 0.6557299445 2.249573369e-38
2.714097834 -1.912812401 0.6580628112 2.277232058e-38
2.715083051 -1.938549689 0.6611733002 2.249573369e-38
2.715059321 -1.963795858 0.6640893835 2.268012495e-38
2.71482755 -1.989114396 0.6670054669 2.258792932e-38
2.715962232 -2.015672883 0.6703103613 2.249573369e-38
2.718440884 -2.043498637 0.6740040669 2.249573369e-38
2.723801593 -2.073807132 0.6784753947 2.249573369e-38
2.722677649 -2.099465901 0.6813914781 2.240353806e-38
2.728298912 -2.130622338 0.6860572115 2.249573369e-38
2.73363964 -2.161926255 0.6907229449 2.277232058e-38
2.732573107 -2.188469872 0.6938334338 2.258792932e-38
2.72823584 -2.212609926 0.6961663005 2.268012495e-38
2.725220984 -2.238023946 0.6988879783 2.277232058e-38
2.723505019 -2.264738299 0.7019984672 2.286451621e-38
2.722313733 -2.292147271 0.7053033616 2.286451621e-38
2.723874033 -2.322172028 0.7093858783 2.286451621e-38
2.728880543 -2.355506498 0.7144404228 2.277232058e-38
2.734318411 -2.389634707 0.7196893729 2.286451621e-38
2.740174087 -2.424567693 0.7251327285 2.295671184e-38
2.736935698 -2.45180766 0.7282432174 2.286451621e-38
2.731285955 -2.477121822 0.7307704896 2.277232058e-38
2.726873335 -2.5037855 0.733686573 2.277232058e-38
2.759595724 -2.565216172 0.7467117453 2.31411031e-38
2.72951698 -2.568655505 0.7428236342 2.323329873e-38
2.744243566 -2.614449701 0.7511830732 2.341768999e-38
2.752861448 -2.655072532 0.7579872677 2.350988562e-38
2.744940623 -2.680137173 0.7603201343 2.341768999e-38
2.743791871 -2.712100018 0.7645970566 2.350988562e-38
2.751367704 -2.753169059 0.7714012511 2.341768999e-38
2.753718104 -2.789545673 0.7768446067 2.350988562e-38
2.744767804 -2.814817253 0.7791774734 2.350988562e-38
2.739013243 -2.843616148 0.7824823679 2.350988562e-38
2.729627411 -2.868896695 0.7848152346 2.350988562e-38
2.709957469 -2.88344701 0.7842320179 2.350988562e-38
2.724248233 -2.934527655 0.7935634846 2.350988562e-38
2.727405655 -2.974323319 0.7997844625 2.341768999e-38
2.742029635 -3.027353886 0.8095047403 2.341768999e-38
2.749563931 -3.073363958 0.8172809626 2.341768999e-38
2.752738629 -3.115169028 0.8238907516 2.341768999e-38
2.75098789 -3.151954629 0.8291397016 2.350988562e-38
2.754652922 -3.195522027 0.8361383017 2.350988562e-38
2.745803963 -3.225061196 0.8394431961 2.350988562e-38
2.750515299 -3.312092672 0.8532459907 2.341768999e-38
22.17315303 -27.72306986 7.035537116 2.341768999e-38
22.21177361 -28.12340669 7.102412628 2.350988562e-38
22.29879021 -28.59254604 7.186201423 2.350988562e-38
22.29170213 -28.9479982 7.24102379 2.350988562e-38
22.32917516 -29.36768027 7.311593008 2.341768999e-38
22.31580594 -29.72692782 7.366804186 2.341768999e-38
22.22935743 -29.99332772 7.398881103 2.350988562e-38
22.20361231 -30.3460702 7.452148225 2.350988562e-38
22.29555961 -30.86740134 7.546434921 2.350988562e-38
22.42432342 -31.86223623 7.721788733 2.350988562e-38
26.95708586 -60.86796947 13.19333314 2.350988562e-38
25.73203022 -61.11608206 13.14220448 2.350988562e-38
25.31078414 -61.16224248 13.118487 2.350988562e-38
24.90583134 -61.24461101 13.10312896 2.350988562e-38
24.49208734 -61.30245362 13.08310519 2.350988562e-38
-1.076855553 -42.83769925 7.942006436 2.350988562e-38
-1.145100486 -26.28303524 4.87589372 2.350988562e-38
-2.296759063 -41.10870559 7.630930394 2.350988562e-38
-2.769413061 -40.61342335 7.544732991 2.350988562e-38
-3.011196266 -40.49663067 7.526327203 2.350988562e-38
-3.473780542 -40.06283842 7.453068522 2.350988562e-38
-3.21008779 -32.39692074 6.033818249 2.350988562e-38
-3.354746062 -30.08896204 5.611214065 2.350988562e-38
-3.42884211 -29.12938231 5.436085725 2.323329873e-38
-1.727391536 -13.27014318 2.480225502 2.323329873e-38
-1.808251482 -13.25539737 2.47949656 2.31411031e-38
-1.889273279 -13.24210582 2.479132089 2.31411031e-38
-1.987147078 -13.34210484 2.500089174 2.350988562e-38
-3.617049587 -23.30334456 4.370736843 2.350988562e-38
-3.684091523 -22.81090452 4.282534849 2.350988562e-38
-3.690066334 -21.98980965 4.132555012 2.350988562e-38
-3.713939113 -21.32936251 4.012644036 2.341768999e-38
-3.741723644 -20.73527293 3.905125076 2.350988562e-38
-3.794498224 -20.31371051 3.830044039 2.350988562e-38
-3.791895884 -19.63163513 3.705759411 2.341768999e-38
-3.827437283 -19.18276522 3.625393544 2.341768999e-38
-3.856426384 -18.72843599 3.543934264 2.341768999e-38
-3.866713858 -18.21197144 3.450629675 2.341768999e-38
-3.897496194 -17.81809341 3.380468998 2.341768999e-38
-3.928561515 -17.44659967 3.314499738 2.341768999e-38
-3.932142203 -16.97578769 3.229577983 2.341768999e-38
-3.958110552 -16.62325666 3.167071198 2.341768999e-38
-3.977567533 -16.26150744 3.102742057 2.341768999e-38
-3.977411049 -15.83912459 3.026749843 2.332549436e-38
-3.996020752 -15.50973036 2.968434475 2.332549436e-38
-4.016015225 -15.20067894 2.913946053 2.31411031e-38
-4.039308993 -14.91760187 2.86437799 2.332549436e-38
-4.029060186 -14.52586043 2.793852841 2.332549436e-38
-4.073254892 -14.34290777 2.763419509 2.332549436e-38
-4.053340698 -13.94657943 2.691800947 2.323329873e-38
-4.090364341 -13.75839615 2.660274201 2.332549436e-38
-4.083480282 -13.43294054 2.602141069 2.323329873e-38
-4.091139673 -13.16725417 2.555488774 2.323329873e-38
-4.101942695 -12.92166911 2.512663425 2.31411031e-38
-4.112011335 -12.68300279 2.471113726 2.31411031e-38
-4.11776326 -12.4400402 2.428652848 2.323329873e-38
-4.136740867 -12.24500089 2.395485983 2.304890747e-38
-4.167259838 -12.09017558 2.370155245 2.31411031e-38
-4.156251031 -11.82227431 2.322591772 2.304890747e-38
-4.156713632 -11.59569807 2.283046663 2.323329873e-38
-4.17007841 -11.41205116 2.251884389 2.304890747e-38
-4.209484617 -11.30424095 2.235665427 2.31411031e-38
-4.196804861 -11.06215939 2.192840078 2.277232058e-38
-4.207187753 -10.88761993 2.163317923 2.286451621e-38
-4.220629324 -10.7261847 2.136347065 2.295671184e-38
-4.250897699 -10.61154943 2.118670219 2.304890747e-38
-4.222007536 -10.35491464 2.072564631 2.258792932e-38
-4.254942977 -10.25525079 2.057803554 2.277232058e-38
-4.267314305 -10.10937663 2.033748464 2.212695117e-38
-4.334306992 -10.09474801 2.036117526 2.175816865e-38
-4.407182582 -10.0931939 2.041220121 2.148158176e-38
-4.482196795 -10.09561792 2.047233893 2.157377739e-38
-4.557810678 -10.09839648 2.053429901 2.166597302e-38
-4.635676808 -10.10509458 2.060537087 2.175816865e-38
-4.71130338 -10.10586899 2.066550859 2.203475554e-38
-4.788376226 -10.10876048 2.073111338 2.157377739e-38
-4.813218642 -10.00210686 2.057256847 2.258792932e-38
-4.838229281 -9.898181977 2.041949063 2.231134243e-38
-4.840286952 -9.750294248 2.017529503 2.249573369e-38
-4.857532934 -9.636122624 2.000034892 2.231134243e-38
-4.861018254 -9.497601946 1.977437687 2.231134243e-38
-4.867522066 -9.368130469 1.956662837 2.240353806e-38
-4.864365644 -9.223285704 1.932607748 2.185036428e-38
-4.8944183 -9.143852718 1.922220323 2.194255991e-38
-4.924149634 -9.065264062 1.912015133 2.350988562e-38
-5.011005067 -9.091713369 1.924042678 2.341768999e-38
-5.14888022 -9.076573782 1.934065632 2.258792932e-38
-5.270678334 -9.159862215 1.958667428 2.332549436e-38
-5.464561691 -9.363430935 2.009328904 2.341768999e-38
-5.565982881 -9.404186548 2.02536563 2.332549436e-38
-5.65292857 -9.41875523 2.035935291 2.31411031e-38
-5.733616489 -9.421689839 2.044135889 2.332549436e-38
-5.813519788 -9.422313862 2.051972017 2.323329873e-38
-5.898860007 -9.430646812 2.0616305 2.323329873e-38
-5.980834624 -9.432472793 2.070013334 2.332549436e-38
-6.06358444 -9.434473571 2.078578404 2.332549436e-38
-6.143899648 -9.431693163 2.086232296 2.332549436e-38
-6.234159209 -9.443051198 2.097166427 2.332549436e-38
-6.323147998 -9.451203159 2.107553852 2.332549436e-38
-6.413022118 -9.459430696 2.118123513 2.323329873e-38
-6.494883022 -9.454752569 2.12595964 2.332549436e-38
-6.579735554 -9.453459806 2.134706946 2.323329873e-38
-6.669915492 -9.458712305 2.145094371 2.332549436e-38
-6.764978871 -9.46961288 2.15693968 2.332549436e-38
-6.850625955 -9.466159723 2.165686985 2.323329873e-38
-6.928345634 -9.450908689 2.171882993 2.332549436e-38
-5.205361594 -7.0099838 1.618251466 2.323329873e-38
-5.196266113 -6.908761858 1.60221474 2.203475554e-38
-5.208172201 -6.836857968 1.592920728 2.194255991e-38
-5.023590379 -6.511282162 1.524217935 2.175816865e-38
-5.038627463 -6.448569067 1.516746279 2.166597302e-38
-5.036001415 -6.364328108 1.504172027 2.166597302e-38
-5.041755592 -6.291873687 1.494331309 2.194255991e-38
-5.032561948 -6.20202899 1.480299174 2.138938613e-38
-5.046801865 -6.142164466 1.473374224 2.138938613e-38
-5.068043916 -6.091430035 1.4686361 2.138938613e-38
-5.120528669 -6.078265988 1.473009753 2.157377739e-38
-5.180061167 -6.072915401 1.479387996 2.120499487e-38
-5.259642836 -6.09013078 1.491415541 2.175816865e-38
-5.310503948 -6.073287637 1.495242487 2.185036428e-38
-5.581649857 -6.30488743 1.56066504 2.148158176e-38
-5.642543766 -6.295415022 1.566861048 2.120499487e-38
-5.724013761 -6.308004574 1.578706357 2.157377739e-38
-5.794540705 -6.307520106 1.587453663 2.157377739e-38
-5.861927866 -6.302806373 1.59528979 2.166597302e-38
-5.929474258 -6.29750199 1.603125918 2.148158176e-38
-6.004637711 -6.299433752 1.612966636 2.212695117e-38
-6.097798693 -6.319074917 1.627545478 2.277232058e-38
-6.210663419 -6.357501427 1.647226915 2.332549436e-38
-6.484101403 -5.656255342 1.594743084 2.332549436e-38
-6.46877667 -5.573362786 1.582533303 2.157377739e-38
-6.484880453 -5.518273066 1.578159651 2.175816865e-38
-6.491519683 -5.455604847 1.571599172 2.148158176e-38
-6.485529522 -5.383016143 1.562122925 2.138938613e-38
-6.48497792 -5.315694159 1.554104561 2.111279924e-38
-6.489959547 -5.253531802 1.547544082 2.138938613e-38
-6.496727599 -5.193351115 1.54153031 2.157377739e-38
-6.496056422 -5.12780295 1.533876418 2.120499487e-38
-6.501806187 -5.067899766 1.527862646 2.157377739e-38
-6.51719592 -5.015915971 1.524217935 2.111279924e-38
-6.593256262 -5.010337604 1.534787596 2.22191468e-38
-6.652188879 -4.991031279 1.541348075 2.231134243e-38
-6.756957693 -5.005134603 1.558478214 2.175816865e-38
-6.843098943 -5.004208467 1.571234701 2.194255991e-38
-6.946222859 -5.014498037 1.587818134 2.194255991e-38
-7.020901261 -5.003166332 1.597841088 2.175816865e-38
-7.102134287 -4.995631342 1.609321926 2.258792932e-38
-12.648324 -8.781302749 2.853808329 2.341768999e-38
-12.68168924 -8.689634264 2.849252441 2.350988562e-38
-12.72662406 -8.606149366 2.847430086 2.341768999e-38
-9.861037042 -6.580535637 2.197213731 2.332549436e-38
-9.87741397 -6.504223625 2.191928901 2.277232058e-38
-9.965545463 -6.302391014 2.185368422 2.258792932e-38
-10.06576127 -6.279637548 2.198853851 2.268012495e-38
-10.18784321 -6.269288205 2.217077403 2.258792932e-38
-10.32698493 -6.267878472 2.238945666 2.268012495e-38
-11.09417475 -6.640712852 2.39639716 2.350988562e-38
-11.19059781 -6.605502795 2.408424705 2.332549436e-38
-11.33374319 -6.596561569 2.430475203 2.341768999e-38
-11.4933998 -6.595408405 2.455988177 2.341768999e-38
-11.64319485 -6.586732062 2.479314324 2.341768999e-38
-11.78644195 -6.572632406 2.501182587 2.332549436e-38
-11.97303448 -6.580700782 2.532162627 2.341768999e-38
-12.1281752 -6.569396441 2.556399952 2.341768999e-38
-12.29576761 -6.562915555 2.583188574 2.350988562e-38
-13.95558077 -6.801127469 2.877316712 2.341768999e-38
-13.91549041 -6.676240212 2.860551044 2.295671184e-38
-13.9561931 -6.590730689 2.860551044 2.350988562e-38
-14.01598683 -6.514090021 2.864560225 2.323329873e-38
-14.11381471 -6.454547351 2.876405534 2.304890747e-38
-14.21054072 -6.393644975 2.888068608 2.323329873e-38
-13.32699057 -5.898058358 2.701094959 2.31411031e-38
-13.34399673 -5.807934022 2.697268013 2.258792932e-38
-13.33508873 -5.706991216 2.688338472 2.203475554e-38
-13.35082268 -5.617053742 2.684511526 2.231134243e-38
-13.36413844 -5.52638687 2.680320109 2.240353806e-38
-13.36500305 -5.430956342 2.67375963 2.249573369e-38
-13.37250634 -5.338640263 2.668657035 2.249573369e-38
-13.4416276 -5.270845673 2.675946456 2.295671184e-38
-13.66915998 -5.263529065 2.714762623 2.295671184e-38
-13.89986048 -5.254658917 2.754125497 2.341768999e-38
-24.30536059 -9.018264217 4.804821865 2.350988562e-38
-24.91182202 -9.069777617 4.913616474 2.350988562e-38
-26.19885867 -9.175832754 5.144873356 2.350988562e-38
-27.79003343 -9.542096249 5.445744208 2.350988562e-38
-2.341872419 -0.7880844847 0.4579578756 2.332549436e-38
-2.349465359 -0.7746238276 0.4585045821 2.304890747e-38
-2.354174134 -0.7601931971 0.4585045821 2.31411031e-38
-2.35691924 -0.7451411524 0.4581401111 2.304890747e-38
-2.358629016 -0.7297934251 0.4575934045 2.304890747e-38
-2.361180375 -0.7147376723 0.4572289335 2.286451621e-38
-2.374949619 -0.7030271851 0.4590512887 2.203475554e-38
-2.379218605 -0.6884415339 0.4590512887 2.185036428e-38
-2.384344183 -0.6740974622 0.4592335242 2.175816865e-38
-2.390331066 -0.6599780884 0.4595979953 2.203475554e-38
-2.395284998 -0.6455547367 0.4597802308 2.175816865e-38
-2.398250025 -0.6305953541 0.4595979953 2.185036428e-38
-2.399216795 -0.6151355029 0.4590512887 2.175816865e-38
-2.400084245 -0.5996875569 0.4585045821 2.175816865e-38
-2.397986439 -0.5835546765 0.457411169 2.194255991e-38
-2.398651577 -0.5681500466 0.4568644624 2.194255991e-38
-2.40305068 -0.5536422525 0.4570466979 2.166597302e-38
-2.402564566 -0.5380275196 0.4563177558 2.203475554e-38
-2.400055867 -0.5220216773 0.4552243427 2.231134243e-38
-2.397441421 -0.5060669247 0.4541309295 2.240353806e-38
-2.39183191 -0.4895724466 0.4524908098 2.249573369e-38
-2.392861895 -0.4745047149 0.4521263387 2.240353806e-38
-2.392831466 -0.4592574562 0.4515796322 2.268012495e-38
-2.392704125 -0.4440284566 0.4510329256 2.277232058e-38
-2.397319254 -0.4296856818 0.4513973966 2.258792932e-38
-2.399910627 -0.4149679187 0.4513973966 2.258792932e-38
-2.402411644 -0.4002345323 0.4513973966 2.268012495e-38
-2.396084465 -0.3840854415 0.4497572769 2.304890747e-38
-2.377988318 -0.3662331237 0.4459303309 2.341768999e-38
-2.383108809 -0.352066269 0.4464770375 2.341768999e-38
-2.393012673 -0.3385389963 0.4479349217 2.240353806e-38
-2.3999168 -0.3245081397 0.4488460993 2.194255991e-38
-2.401862767 -0.3097764183 0.4488460993 2.231134243e-38
-2.393958994 -0.2938351735 0.447023744 2.332549436e-38
-2.400600105 -0.2797095638 0.4479349217 2.295671184e-38
-2.413021784 -0.2661603024 0.4499395124 2.231134243e-38
-2.414609488 -0.2513492687 0.4499395124 2.194255991e-38
-2.415127707 -0.2364329724 0.4497572769 2.194255991e-38
-2.414574676 -0.2214299902 0.4493928059 2.185036428e-38
-2.412948855 -0.2063589195 0.4488460993 2.194255991e-38
-2.413189452 -0.1914716882 0.4486638638 2.194255991e-38
-2.413338239 -0.1765892766 0.4484816282 2.203475554e-38
-2.41437634 -0.1617779873 0.4484816282 2.22191468e-38
-2.416304981 -0.147020323 0.4486638638 2.194255991e-38
-2.417161595 -0.1321913867 0.4486638638 2.194255991e-38
-2.417927203 -0.1173574735 0.4486638638 2.175816865e-38
-2.417619406 -0.1024775013 0.4484816282 2.194255991e-38
-2.418202685 -0.08764133838 0.4484816282 2.194255991e-38
-2.41771211 -0.07277229359 0.4482993927 2.203475554e-38
-2.419096093 -0.05795967232 0.4484816282 2.203475554e-38
-2.420389287 -0.04313280609 0.4486638638 2.194255991e-38
-2.420608381 -0.02828076465 0.4486638638 2.194255991e-38
-2.419753102 -0.0134222045 0.4484816282 2.212695117e-38
-2.418806653 0.001424794892 0.4482993927 2.22191468e-38
-2.418752377 0.01626628668 0.4482993927 2.194255991e-38
-2.420573384 0.03113245643 0.4486638638 2.194255991e-38
-2.42131987 0.04600290703 0.4488460993 2.203475554e-38
-2.423940854 0.06093310833 0.4493928059 2.212695117e-38
-2.427452442 0.07592794299 0.450121748 2.194255991e-38
-2.428905995 0.09089462118 0.450486219 2.22191468e-38
-2.432231845 0.1059675887 0.4512151611 2.212695117e-38
-2.433499938 0.120987137 0.4515796322 2.203475554e-38
-2.434675213 0.1360262329 0.4519441032 2.203475554e-38
-2.435757477 0.1510843025 0.4523085743 2.231134243e-38
-2.434784589 0.1660269853 0.4523085743 2.203475554e-38
-2.435681128 0.1811092379 0.4526730453 2.203475554e-38
-2.43844434 0.1963665889 0.4534019874 2.22191468e-38
-2.439152713 0.2114947809 0.4537664585 2.212695117e-38
-2.440746209 0.2267299992 0.4543131651 2.212695117e-38
-2.441266 0.2418957727 0.4546776361 2.212695117e-38
-2.440713649 0.2569734998 0.4548598716 2.22191468e-38
-2.437136544 0.2717266954 0.4544954006 2.258792932e-38
-2.436399895 0.2867905151 0.4546776361 2.249573369e-38
-2.434594317 0.301734585 0.4546776361 2.258792932e-38
-2.433672107 0.3167942156 0.4548598716 2.22191468e-38
-2.429734017 0.3314551813 0.4544954006 2.249573369e-38
-2.428627905 0.3464963857 0.4546776361 2.249573369e-38
-2.427428653 0.3615364901 0.4548598716 2.240353806e-38
-2.428079472 0.3768765393 0.4554065782 2.249573369e-38
-2.429604 0.3923949396 0.4561355203 2.231134243e-38
-2.42812027 0.4074580457 0.4563177558 2.240353806e-38
-2.427511806 0.4226863808 0.4566822269 2.231134243e-38
-2.418099167 0.4363510843 0.4554065782 2.295671184e-38
-2.420208932 0.4520827688 0.4563177558 2.304890747e-38
-2.418354856 0.4671108527 0.4564999914 2.31411031e-38
-2.41737169 0.482325589 0.4568644624 2.31411031e-38
-2.41725584 0.4977441365 0.457411169 2.31411031e-38
-2.397805376 0.5090952019 0.4543131651 2.341768999e-38
-15.53391949 3.397860293 2.947112918 2.350988562e-38
-15.53004446 3.496998622 2.950393158 2.304890747e-38
-15.51787386 3.594442145 2.952215513 2.295671184e-38
-15.51943951 3.695284177 2.956771401 2.31411031e-38
-15.54136316 3.801420116 2.965336471 2.286451621e-38
-15.54349399 3.903174344 2.97025683 2.304890747e-38
-2.454667866 0.6324354779 0.4698031847 2.350988562e-38
-2.459296836 0.6497455527 0.4714433044 2.350988562e-38
-2.451467466 0.6637953384 0.4707143623 2.341768999e-38
-2.448295829 0.679087569 0.4708965979 2.341768999e-38
-2.438407823 0.6924855652 0.4698031847 2.341768999e-38
-2.435057095 0.7077087306 0.4699854202 2.341768999e-38
-2.453288477 0.7293614454 0.4743590729 2.350988562e-38
-15.41610061 4.78986887 2.991942858 2.286451621e-38
-15.41453536 4.893295144 2.997409923 2.277232058e-38
-15.4263101 5.001430896 3.005610522 2.295671184e-38
-15.42800213 5.10680507 3.011988765 2.295671184e-38
-15.43643285 5.214905508 3.019824893 2.295671184e-38
-15.44783468 5.324582807 3.028389963 2.286451621e-38
-15.45383209 5.432965256 3.036043855 2.277232058e-38
-15.44889819 5.537971523 3.041693156 2.277232058e-38
-15.49682112 5.662694483 3.057912118 2.332549436e-38
-15.48481978 5.766252771 3.062468006 2.332549436e-38
-15.47488814 5.87092298 3.067570601 2.31411031e-38
-15.50460913 5.991282029 3.080691558 2.268012495e-38
-15.54075298 6.115106122 3.0952704 2.341768999e-38
-15.54309954 6.22643531 3.103288764 2.341768999e-38
-15.50824418 6.323173688 3.104017706 2.341768999e-38
-15.55543177 6.454008441 3.121330081 2.295671184e-38
-15.53999606 6.559657429 3.12625044 2.286451621e-38
-15.55004994 6.676609473 3.136455629 2.31411031e-38
-15.55564738 6.792357193 3.145931877 2.295671184e-38
-15.54333342 6.90084349 3.151945649 2.31411031e-38
-15.53475369 7.011456363 3.158870599 2.341768999e-38
-15.57008559 7.142722327 3.174907325 2.277232058e-38
-15.61240907 7.278423625 3.192584171 2.31411031e-38
-15.59055931 7.38502645 3.197322295 2.304890747e-38
-15.58216434 7.498456573 3.204976187 2.304890747e-38
-15.5720796 7.611629252 3.212447843 2.304890747e-38
-6.636999138 3.294770343 1.37332692 2.332549436e-38
-6.57187953 3.312859591 1.364032908 2.277232058e-38
-6.538299377 3.346401839 1.361299375 2.258792932e-38
-6.512408105 3.383737049 1.360205962 2.249573369e-38
-6.495002134 3.425467481 1.360934904 2.240353806e-38
-6.475595355 3.466183609 1.361299375 2.258792932e-38
-6.481853888 3.52087024 1.367130912 2.295671184e-38
-6.491128564 3.577662076 1.373691391 2.350988562e-38
-17.67043995 10.3125884 3.791956814 2.332549436e-38
-26.13101394 15.46596035 5.627797498 2.350988562e-38
-26.08452263 15.65535356 5.638367159 2.350988562e-38
-25.98041263 15.81051008 5.636727039 2.350988562e-38
-2.590717915 1.598459792 0.5642011869 2.350988562e-38
-17.73228489 11.24348469 3.891457411 2.350988562e-38
-18.17095822 16.69314648 4.573200512 2.31411031e-38
-18.18307952 17.1204554 4.628782348 2.332549436e-38
-17.18128947 16.57964905 4.425225266 2.332549436e-38
-16.02644467 15.84963027 4.177567186 2.323329873e-38
-15.90109721 15.91984129 4.170277765 2.31411031e-38
-15.73682038 15.949916 4.152783155 2.304890747e-38
-15.55493269 15.96026874 4.130550421 2.304890747e-38
-15.36055686 15.95553452 4.104855212 2.323329873e-38
-15.18173501 15.96469503 4.083169184 2.332549436e-38
-15.00944081 15.97871497 4.063123276 2.304890747e-38
-14.84624306 16.00059471 4.04544643 2.31411031e-38
-14.68666608 16.0247003 4.028680762 2.31411031e-38
-14.51019754 16.02850028 4.00717697 2.31411031e-38
-14.35258942 16.05126433 3.990775773 2.304890747e-38
-14.20045759 16.07859601 3.97583246 2.304890747e-38
-14.0633989 16.12170933 3.965080564 2.304890747e-38
-3.235135376 3.801817328 0.9252097629 7.375650389e-40
-3.208583926 3.817832541 0.9242985853 5.531737792e-40
-3.181957862 3.833665199 0.9233874077 1.014151928e-39
-3.1546351 3.848554556 0.9222939945 3.687825195e-40
-3.127868204 3.864017365 0.9213828169 4.609781493e-40
-3.096732832 3.873920559 0.9191959906 5.531737792e-40
-3.06498475 3.882815713 0.9168269288 1.382934448e-39
-3.009669959 3.861222925 0.9073506814 6.45369409e-40
-2.942742667 3.82351511 0.8942297236 4.609781493e-40
-2.899594572 3.815665046 0.8882159512 6.45369409e-40
-2.862555301 3.815295372 0.8840245342 1.014151928e-39
-2.833823871 3.825676935 0.8823844144 4.609781493e-40
-2.807975013 3.839818219 0.8816554723 7.375650389e-40
-2.780332838 3.85139477 0.8803798237 9.219562986e-40
-2.754936935 3.865979846 0.8798331171 1.106347558e-39
-2.72946679 3.880398362 0.8792864105 1.382934448e-39
-2.702241248 3.892226907 0.8781929973 4.609781493e-40
-2.674417658 3.903056515 0.8769173487 4.609781493e-40
-2.628386866 3.886812801 0.8696279276 1.198543188e-39
-2.599030497 3.89468843 0.8678055724 9.219562986e-40
-2.56859513 3.900708044 0.8656187461 4.609781493e-40
-2.538183987 3.906501167 0.8634319198 3.687825195e-40
-2.503553591 3.905446117 0.8597872093 3.687825195e-40
-2.428039233 3.839294533 0.8419281278 6.45369409e-40
-2.434621619 3.902505489 0.8524977883 8.297606688e-40
-2.371982049 3.854565369 0.8388301238 8.297606688e-40
-2.374814772 3.912755564 0.8483063712 8.297606688e-40
-2.349246858 3.924722506 0.8477596646 1.106347558e-39
-2.293632894 3.885718321 0.8362788265 1.60420396e-38
-2.722986038 5.501458259 1.137696386 2.295671184e-38
-2.710285264 5.561372742 1.146625926 2.323329873e-38
-13.41616761 29.33641872 5.97878312 2.341768999e-38
-13.00461781 29.38465651 5.955639209 2.332549436e-38
-3.053668168 7.015943689 1.418156859 2.332549436e-38
-3.042671225 7.109576524 1.433282408 2.304890747e-38
-3.013098817 7.161645563 1.440025122 2.323329873e-38
-12.16383751 29.41509748 5.899510667 2.332549436e-38
-11.95906062 29.42996992 5.887665358 2.332549436e-38
-11.75456009 29.44343908 5.875820048 2.341768999e-38
-11.55465283 29.46649362 5.866161566 2.332549436e-38
-11.35667257 29.49279319 5.85741426 2.332549436e-38
-3.080545094 8.148796656 1.614606756 2.350988562e-38
-3.038696021 8.189669403 1.618980408 2.341768999e-38
-2.994442768 8.224790994 1.622260648 2.332549436e-38
-2.953841126 8.270788904 1.627727714 2.341768999e-38
-2.932938324 8.374132212 1.644493382 2.341768999e-38
-2.896508218 8.435678923 1.653058452 2.341768999e-38
-9.942471351 29.54505499 5.7775951 2.341768999e-38
-9.757612467 29.59523276 5.775590509 2.332549436e-38
-9.570397264 29.63770496 5.77231027 2.341768999e-38
-7.764567594 28.80987655 5.530119257 2.350988562e-38
-7.590397765 28.86743696 5.532123847 2.350988562e-38
-2.834857971 11.96838156 2.279584188 2.350988562e-38
-2.752758727 11.94818261 2.272477003 2.341768999e-38
-2.677460432 11.95621288 2.270836883 2.332549436e-38
-2.603421159 11.96953403 2.270290177 2.323329873e-38
-2.529522317 11.98335888 2.269925706 2.332549436e-38
-3.180310807 22.48049456 4.208000519 2.350988562e-38
-3.041522698 22.49373907 4.206907106 2.341768999e-38
-2.904955718 22.5236802 4.209093932 2.350988562e-38
-2.216607016 22.64231154 4.216565589 2.350988562e-38
-2.074132743 22.61729945 4.209458403 7.652237279e-39
-1.934227371 22.6168645 4.207089342 2.581477636e-39
-1.794872093 22.62144572 4.205813693 2.673673266e-39
-1.655748703 22.62811047 4.205084751 2.581477636e-39
-1.516808321 22.63686293 4.204902515 3.319042675e-39
-1.370179249 22.51913801 4.181394132 2.231134243e-38
20.88481926 48.64145247 9.811013986 2.350988562e-38
21.14668582 48.42948899 9.794248318 2.350988562e-38
21.40474396 48.21165305 9.776571472 2.350988562e-38
23.52567664 45.2779885 9.45693036 2.350988562e-38
23.78608291 45.10060601 9.450187645 2.341768999e-38
24.04241466 44.91653249 9.442351518 2.341768999e-38
24.2879973 44.71373241 9.43087068 2.350988562e-38
24.53816755 44.5208063 9.421758903 2.350988562e-38
24.78832525 44.3290698 9.413193834 2.341768999e-38
25.02638143 44.11712603 9.400619583 2.341768999e-38
25.2858194 43.94398729 9.396610401 2.341768999e-38
25.53366754 43.751493 9.388774273 2.341768999e-38
25.77660058 43.55168991 9.379662497 2.350988562e-38
26.02816377 43.36741577 9.374195431 2.350988562e-38
26.28303702 43.18925469 9.370368485 2.341768999e-38
26.52121531 42.98449542 9.361074473 2.341768999e-38
26.76464989 42.7892779 9.354149524 2.350988562e-38
27.01405944 42.60431808 9.349775871 2.350988562e-38
27.26858673 42.42783512 9.347589045 2.341768999e-38
27.52035553 42.24736143 9.344855512 2.350988562e-38
27.77364516 42.06949877 9.343033156 2.341768999e-38
28.02032095 41.88194645 9.339388446 2.341768999e-38
28.26905173 41.69783461 9.336837149 2.341768999e-38
28.5154649 41.51062676 9.33392138 2.341768999e-38
28.76008365 41.32115836 9.330823376 2.341768999e-38
29.00231795 41.12864429 9.327360901 2.350988562e-38
29.24327298 40.93471387 9.323898426 2.341768999e-38
29.4852463 40.74256174 9.321164893 2.341768999e-38
29.72712555 40.55056777 9.318795832 2.341768999e-38
30.21541274 40.17328722 9.316609005 2.341768999e-38
30.46491759 39.99182564 9.317702418 2.341768999e-38
30.71873863 39.81582092 9.320435951 2.341768999e-38
30.96428181 39.62890913 9.320982658 2.350988562e-38
31.21295861 39.44588046 9.322805013 2.350988562e-38
31.93810976 38.869987 9.324080662 2.350988562e-38
32.18041237 38.67857771 9.32535631 2.341768999e-38
32.41523339 38.47813835 9.324809604 2.350988562e-38
32.6653968 38.29572373 9.329001021 2.332549436e-38
32.90940014 38.10573398 9.331734554 2.341768999e-38
33.15230143 37.91419127 9.334468087 2.341768999e-38
33.39995663 37.72772784 9.338841739 2.350988562e-38
33.71516453 35.80778101 9.115420985 2.350988562e-38
35.17777418 36.90481735 9.449458703 2.350988562e-38
35.71457837 36.55897407 9.47242038 2.350988562e-38
36.63833171 36.1488327 9.539300817 2.350988562e-38
16.64829868 16.02748803 4.283081556 2.350988562e-38
37.72288 35.87282855 9.648095426 2.350988562e-38
38.21174665 35.8938094 9.716615984 2.350988562e-38
38.50550793 35.72755516 9.735386243 2.350988562e-38
38.78851666 35.54974391 9.751605205 2.350988562e-38
39.09120073 35.38827931 9.772926761 2.350988562e-38
39.95881539 35.29123209 9.880810192 2.350988562e-38
40.898401 35.23720755 10.00545929 2.350988562e-38
41.14229814 35.00981048 10.01238424 2.350988562e-38
41.6935616 35.04011508 10.09402576 2.350988562e-38
14.72711527 12.22356617 3.547214504 2.350988562e-38
14.77522526 12.1111559 3.54083626 2.332549436e-38
14.84161733 12.01408238 3.539013905 2.341768999e-38
14.91351892 11.92156188 3.538649434 2.341768999e-38
14.95397282 11.8042426 3.530995542 2.350988562e-38
23.83327016 18.34311595 5.574038018 2.350988562e-38
52.3264103 39.25967156 12.12431175 2.350988562e-38
52.41303818 38.82432345 12.08895805 2.350988562e-38
52.36573494 37.80297298 11.97014049 2.350988562e-38
52.34607177 37.30234825 11.91310077 2.350988562e-38
52.01151113 34.70868237 11.58908601 2.350988562e-38
51.84574772 34.14014419 11.50525767 2.350988562e-38
51.76072821 33.63066998 11.44038182 2.350988562e-38
51.7931026 33.20153554 11.40229459 2.350988562e-38
51.68421735 32.68603292 11.33395627 2.350988562e-38
51.65188753 32.2236067 11.2832948 2.350988562e-38
51.93163845 31.51948035 11.25905747 2.350988562e-38
52.53213438 31.00827735 11.305892 2.350988562e-38
52.82253454 30.74422063 11.32757803 2.350988562e-38
54.27431096 30.26571517 11.51746745 2.350988562e-38
54.68130947 30.05431385 11.56448421 2.350988562e-38
56.41400972 29.66788312 11.81341794 2.350988562e-38
13.81797471 6.629455067 2.840505136 2.350988562e-38
13.90818173 6.568057602 2.850710325 2.332549436e-38
13.91612103 6.467676249 2.844149846 2.350988562e-38
13.97432186 6.390754308 2.847976792 2.341768999e-38
14.67740468 6.388295782 2.966794355 2.350988562e-38
23.50092441 10.05764355 4.737759192 2.350988562e-38
23.22323537 9.770645922 4.669603105 2.350988562e-38
23.07649062 9.542673873 4.628235641 2.350988562e-38
22.98248549 9.339083186 4.597802308 2.350988562e-38
22.88229062 9.135184903 4.566457798 2.341768999e-38
22.83264214 8.953330403 4.545500712 2.341768999e-38
22.75042979 8.76041751 4.518347619 2.341768999e-38
22.74673125 8.599101723 4.507049016 2.341768999e-38
22.69305399 8.420033764 4.486091931 2.341768999e-38
22.68146418 8.257759549 4.473699915 2.332549436e-38
22.70022279 8.107189342 4.467503907 2.350988562e-38
22.7105649 7.954100134 4.459850015 2.332549436e-38
22.74406344 7.809491951 4.456934247 2.341768999e-38
22.77291537 7.663517928 4.453289536 2.332549436e-38
22.81110485 7.520870771 4.451649417 2.341768999e-38
22.8633724 7.382877889 4.452925065 2.341768999e-38
22.92136774 7.246601446 4.455476363 2.341768999e-38
22.99733739 7.115703874 4.461672371 2.341768999e-38
23.09232524 6.990128738 4.471695325 2.341768999e-38
23.19794973 6.867004322 4.483905105 2.341768999e-38
23.30481931 6.743392777 4.496479356 2.332549436e-38
23.41293524 6.61926258 4.509418078 2.341768999e-38
23.52135054 6.494320468 4.522539036 2.332549436e-38
23.63101026 6.368808146 4.536024465 2.341768999e-38
23.72765052 6.238943408 4.547140832 2.332549436e-38
23.89692313 6.1269352 4.572289335 2.350988562e-38
23.86252281 5.962314879 4.55862167 2.350988562e-38
23.90447958 5.199319188 4.534019874 2.350988562e-38
24.02251697 5.070823078 4.550421072 2.350988562e-38
24.11097572 4.935158412 4.561355203 2.341768999e-38
24.26136275 4.811030272 4.584134644 2.341768999e-38
24.47196442 4.696917559 4.618394923 2.350988562e-38
24.67723858 4.579503185 4.651744024 2.350988562e-38
24.77939639 4.441357493 4.665776159 2.341768999e-38
24.87594079 4.301292415 4.678897117 2.350988562e-38
24.96975688 4.159886166 4.691653604 2.341768999e-38
24.90646308 3.992434326 4.675070171 2.341768999e-38
25.02669928 3.854352936 4.693111488 2.341768999e-38
24.90105531 3.67873326 4.665229453 2.350988562e-38
25.1383158 3.556312215 4.705503504 2.341768999e-38
25.24248665 3.413198484 4.720993523 2.341768999e-38
25.1254544 3.240515395 4.695298314 2.350988562e-38
25.18487802 3.091198731 4.702769971 2.341768999e-38
25.19555798 2.935698669 4.701312087 2.341768999e-38
25.22189274 2.782016575 4.702952206 2.341768999e-38
25.35780049 2.63962543 4.72518494 2.341768999e-38
25.33535508 2.480247024 4.718077755 2.350988562e-38
25.44801128 2.333724836 4.736301308 2.341768999e-38
25.38935547 2.171334859 4.722815879 2.350988562e-38
25.41788337 2.01675216 4.725731647 2.341768999e-38
25.39545729 1.858241567 4.719353404 2.341768999e-38
25.46818764 1.706524401 4.730834242 2.341768999e-38
25.46247621 1.549266961 4.727918473 2.341768999e-38
25.50390201 1.394774839 4.733932246 2.350988562e-38
25.47269613 1.23635288 4.726642825 2.341768999e-38
25.52008002 1.081739345 4.734114481 2.350988562e-38
25.61663714 0.9284070263 4.75088015 2.341768999e-38
25.5402783 0.7687534933 4.735754601 2.341768999e-38
15.35501831 0.3678943687 2.846701144 2.332549436e-38
15.31078097 0.2728474094 2.838136074 2.323329873e-38
14.55216273 0.1700177082 2.697268013 2.31411031e-38
14.53621693 0.08063139837 2.694170009 2.31411031e-38
14.53250501 -0.00856035305 2.693441067 2.31411031e-38
15.09360477 -0.1015055963 2.797497552 2.332549436e-38
16.60678515 -0.2135898951 3.078140261 2.332549436e-38
15.02339028 -0.2854309482 2.784923301 2.323329873e-38
14.32543147 -0.3601131877 2.655900549 2.341768999e-38
14.33965935 -0.4485281847 2.658998552 2.332549436e-38
14.35039323 -0.5370210123 2.66154985 2.323329873e-38
14.33209314 -0.6244212921 2.658816317 2.31411031e-38
14.29656663 -0.7107872235 2.65298478 2.323329873e-38
14.22125207 -0.7945467781 2.639863822 2.323329873e-38
14.28774904 -0.8862354393 2.653167016 2.323329873e-38
14.29871884 -0.9750239072 2.65626502 2.323329873e-38
14.1198906 -1.049908626 2.624191567 2.323329873e-38
13.96421019 -1.124530209 2.596491767 2.304890747e-38
13.97174102 -1.211465888 2.5992253 2.31411031e-38
14.12754424 -1.312360164 2.629658633 2.31411031e-38
14.23761987 -1.410751659 2.651709131 2.323329873e-38
14.7381555 -1.551724595 2.74665384 2.332549436e-38
16.07982431 -1.792807848 2.998685572 2.332549436e-38
14.79221868 -1.741203496 2.76050374 2.31411031e-38
14.79199008 -1.833264358 2.762508331 2.341768999e-38
25.89579226 -3.370888451 4.839993322 2.341768999e-38
