# .PCD v0.7 - Point Cloud Data file format
VERSION 0.7
FIELDS x y z rgb
SIZE 4 4 4 4
TYPE F F F F
COUNT 1 1 1 1
WIDTH 884
HEIGHT 1
VIEWPOINT 0 0 0 1 0 0 0
POINTS 884
DATA ascii
-3.097244913 0.224866045 -1.040256801 2.323329873e-38
-3.075955881 0.2423024276 -1.033586452 2.332549436e-38
-3.060239089 0.2599676513 -1.028821917 2.341768999e-38
-3.063307847 0.2791703187 -1.030410096 2.31411031e-38
-3.028505843 0.2947464195 -1.019292847 2.258792932e-38
-3.043617406 0.3150809348 -1.025010289 2.304890747e-38
-3.044454477 0.3340605618 -1.025963196 2.277232058e-38
-3.03387028 0.3517518426 -1.023104475 2.304890747e-38
-3.057892892 0.4117111935 -1.033586452 2.332549436e-38
-3.061881692 0.4313923397 -1.035809902 2.323329873e-38
-3.069496291 0.4516900898 -1.039303894 2.323329873e-38
-3.079788426 0.4725288709 -1.043750793 2.323329873e-38
-3.086194521 0.4929126897 -1.04692715 2.323329873e-38
-3.080305739 0.5113740706 -1.045974243 2.295671184e-38
-3.136571079 0.5802320676 -1.068526375 2.350988562e-38
-3.118050718 0.5966155738 -1.063444205 2.332549436e-38
-3.164562407 0.6256675735 -1.080596531 2.31411031e-38
-3.157876629 0.6445043378 -1.079643624 2.31411031e-38
-3.160357736 0.6652357623 -1.081867073 2.31411031e-38
-3.153436442 0.6840118221 -1.080914166 2.295671184e-38
-3.148254649 0.7031413833 -1.080596531 2.295671184e-38
-3.145729244 0.7228701924 -1.081231802 2.295671184e-38
-3.155999488 0.7456468225 -1.086313972 2.277232058e-38
-3.179929878 0.7719318238 -1.096160678 2.258792932e-38
-3.173293408 0.7909703089 -1.095525407 2.258792932e-38
-3.142658522 0.8038471008 -1.086631608 2.31411031e-38
-3.143170119 0.824558598 -1.088537422 2.268012495e-38
-3.146292716 0.8460452726 -1.091396143 2.286451621e-38
-3.143784722 0.866090166 -1.09234905 2.295671184e-38
-3.142061688 0.8863935546 -1.093619593 2.31411031e-38
-3.137474729 0.9059192394 -1.093937228 2.304890747e-38
-3.130038318 0.9246161136 -1.093301957 2.295671184e-38
-3.130659964 0.945723678 -1.095525407 2.31411031e-38
-3.124798178 0.9649152434 -1.095525407 2.31411031e-38
-3.119723014 0.9843558009 -1.095843042 2.31411031e-38
-3.112721893 1.003188668 -1.095525407 2.295671184e-38
-3.057870148 1.006263713 -1.078373081 2.258792932e-38
-3.056132579 1.026517092 -1.079961259 2.258792932e-38
-3.063231353 1.049861242 -1.084725794 2.231134243e-38
-3.06478767 1.071453433 -1.087584515 2.22191468e-38
-3.065300885 1.092785733 -1.0901256 2.212695117e-38
-3.064776251 1.11384069 -1.09234905 2.212695117e-38
-3.06321923 1.134600918 -1.094254864 2.203475554e-38
-3.064184052 1.156388291 -1.097113585 2.231134243e-38
-3.06942188 1.179931277 -1.101560484 2.203475554e-38
-3.075368659 1.203927557 -1.106325019 2.185036428e-38
-3.074089401 1.225232487 -1.108548469 2.203475554e-38
-3.070028275 1.245497551 -1.109819012 2.203475554e-38
-3.068463428 1.266844409 -1.112042461 2.194255991e-38
-3.068500403 1.288953307 -1.114901182 2.203475554e-38
-3.068381293 1.311110231 -1.117759903 2.194255991e-38
-3.071584088 1.334825789 -1.121889167 2.203475554e-38
-3.069407094 1.356330314 -1.124112617 2.203475554e-38
-3.067081615 1.377858277 -1.126336066 2.22191468e-38
-3.061157121 1.397833199 -1.127288973 2.194255991e-38
-3.060263522 1.420182158 -1.130147694 2.22191468e-38
-3.065214119 1.445403597 -1.135229865 2.22191468e-38
-3.072535339 1.471968043 -1.141264942 2.203475554e-38
-3.069413978 1.493697468 -1.143488392 2.203475554e-38
-3.06784152 1.516284177 -1.146347113 2.22191468e-38
-3.071191911 1.541459769 -1.151111648 2.22191468e-38
-3.071813877 1.565441706 -1.154923276 2.22191468e-38
-3.074783316 1.59079626 -1.159687811 2.231134243e-38
-3.077556786 1.616245947 -1.164452346 2.22191468e-38
-3.075112641 1.63911321 -1.167311067 2.212695117e-38
-3.074171485 1.662913465 -1.170805059 2.231134243e-38
-3.074716147 1.687676199 -1.174934323 2.203475554e-38
-3.074243846 1.712046658 -1.178745951 2.212695117e-38
-3.082669106 1.741605251 -1.186051571 2.203475554e-38
-3.084265138 1.767559492 -1.190816106 2.212695117e-38
-3.084018699 1.792645595 -1.19494537 2.203475554e-38
-3.077862231 1.814424242 -1.196851184 2.194255991e-38
-3.074809917 1.838140875 -1.20002754 2.22191468e-38
-3.07563649 1.864345793 -1.204792075 2.22191468e-38
-3.077872471 1.891622759 -1.210191882 2.22191468e-38
-3.085522446 1.922507093 -1.217815138 2.249573369e-38
-3.08729676 1.950011517 -1.223214944 2.240353806e-38
-3.082460681 1.973519576 -1.226073665 2.258792932e-38
-3.07983832 1.998590026 -1.229885293 2.249573369e-38
-3.079400685 2.02526547 -1.234649828 2.249573369e-38
-3.081907277 2.054114042 -1.240684905 2.249573369e-38
-3.094390323 2.089968587 -1.250849247 2.231134243e-38
-3.097158384 2.11962666 -1.25720196 2.240353806e-38
-3.096561579 2.147235702 -1.262284131 2.240353806e-38
-3.0926386 2.172736529 -1.266095759 2.249573369e-38
-3.100106652 2.206517445 -1.274671922 2.240353806e-38
-3.094969762 2.231598098 -1.278165914 2.268012495e-38
-3.091938617 2.258376399 -1.282612813 2.268012495e-38
-3.095555354 2.290276945 -1.289918433 2.258792932e-38
-3.099655154 2.322875048 -1.297541689 2.277232058e-38
-3.102715492 2.355035896 -1.30484731 2.277232058e-38
-3.103241943 2.385587547 -1.311200023 2.258792932e-38
-3.100516943 2.413903866 -1.316282194 2.268012495e-38
-3.099050048 2.44345038 -1.321999636 2.277232058e-38
-3.093631846 2.470111161 -1.326128899 2.286451621e-38
-3.109385801 2.514086343 -1.339469597 2.249573369e-38
-3.108574594 2.545131687 -1.34582231 2.277232058e-38
-3.112608737 2.580497554 -1.354398473 2.258792932e-38
-3.112693938 2.612959885 -1.361386458 2.258792932e-38
-3.109607385 2.643063532 -1.3671039 2.286451621e-38
-3.107705531 2.674464295 -1.373456613 2.286451621e-38
-3.10982428 2.709678249 -1.38171514 2.295671184e-38
-3.112338262 2.745645577 -1.390291303 2.304890747e-38
-3.114527222 2.781745135 -1.398867466 2.286451621e-38
-3.114983004 2.81670235 -1.406808358 2.286451621e-38
-3.1095312 2.846647118 -1.412208164 2.268012495e-38
-3.106610583 2.879208824 -1.418878513 2.286451621e-38
-3.105481367 2.913787772 -1.426501769 2.286451621e-38
-3.109544112 2.953684971 -1.43666611 2.286451621e-38
-3.118701146 2.998998884 -1.449371537 2.304890747e-38
-3.12266213 3.039905416 -1.459853514 2.295671184e-38
-3.122860895 3.077644743 -1.468747313 2.286451621e-38
-3.122713386 3.115500257 -1.477641111 2.295671184e-38
-3.123552471 3.154816764 -1.487170181 2.295671184e-38
-3.124025888 3.194260103 -1.496699251 2.286451621e-38
-3.123473294 3.233145309 -1.505910685 2.295671184e-38
-3.129106657 3.27900309 -1.518298476 2.304890747e-38
-3.132993093 3.323670746 -1.530050996 2.304890747e-38
-3.133863651 3.365732725 -1.540532973 2.304890747e-38
-3.130483863 3.403742156 -1.549109136 2.295671184e-38
-3.131218118 3.446749018 -1.559908748 2.304890747e-38
-3.129641824 3.487774917 -1.569755454 2.304890747e-38
-3.135226404 3.537425783 -1.583413787 2.295671184e-38
-3.140943057 3.587988806 -1.597389757 2.31411031e-38
-3.146156218 3.638753983 -1.611365726 2.295671184e-38
-3.141011406 3.678179906 -1.620259524 2.31411031e-38
-3.139779864 3.722752776 -1.631376773 2.304890747e-38
-3.142973737 3.773276638 -1.645035106 2.295671184e-38
-3.136629017 3.812994438 -1.653928905 2.304890747e-38
-3.13350188 3.857191456 -1.664728517 2.31411031e-38
-3.130543049 3.902232334 -1.675845766 2.323329873e-38
-3.123615844 3.942921669 -1.6850572 2.332549436e-38
-3.098195262 3.960519901 -1.684421929 2.341768999e-38
-3.07673385 3.983207593 -1.686010107 2.341768999e-38
-3.059710761 4.011812554 -1.690139371 2.341768999e-38
-3.024770151 4.01687656 -1.684421929 2.341768999e-38
-3.002329039 4.038404417 -1.685692471 2.341768999e-38
-2.972443886 4.049870604 -1.68283375 2.341768999e-38
-2.939193153 4.056515293 -1.678069215 2.350988562e-38
-2.912592631 4.072159753 -1.677116308 2.350988562e-38
-2.882629537 4.082982915 -1.674257587 2.341768999e-38
-2.858606803 4.102149443 -1.674892859 2.341768999e-38
-2.834994689 4.121956099 -1.675845766 2.350988562e-38
-2.812312144 4.143196444 -1.677433944 2.350988562e-38
-2.797391229 4.176130482 -1.683786657 2.350988562e-38
-2.785831705 4.214573976 -1.69236282 2.350988562e-38
-2.780121233 4.262562643 -1.704750611 2.350988562e-38
-2.776491579 4.314625644 -1.71872658 2.350988562e-38
-2.783507627 4.384414572 -1.739690534 2.350988562e-38
-2.792790288 4.459271755 -1.762560302 2.341768999e-38
-2.800261041 4.532792365 -1.784794799 2.341768999e-38
-2.803479623 4.600902288 -1.804805846 2.350988562e-38
-2.810850823 4.677347895 -1.827993249 2.341768999e-38
-2.808686497 4.739371868 -1.845463211 2.350988562e-38
-2.813998797 4.815461209 -1.868332978 2.332549436e-38
-2.801913629 4.863036041 -1.880085498 2.332549436e-38
-2.784198333 4.901573369 -1.888344025 2.341768999e-38
-2.764262114 4.936766202 -1.89533201 2.350988562e-38
-2.738958553 4.962766351 -1.898826002 2.341768999e-38
-2.712986737 4.987808536 -1.902002359 2.350988562e-38
-2.686810559 5.012718532 -1.905178715 2.350988562e-38
-2.658216591 5.033302451 -1.906766894 2.341768999e-38
-2.629908758 5.054565206 -1.908672708 2.341768999e-38
-2.601872466 5.07651372 -1.910896157 2.341768999e-38
-2.574093034 5.099154731 -1.913437243 2.341768999e-38
-0.5326790894 1.105328501 -0.4110205498 2.350988562e-38
-0.531576551 1.12057002 -0.4154674491 2.350988562e-38
-0.524289716 1.122951435 -0.4151498135 2.350988562e-38
-0.5229315916 1.138210064 -0.4195967128 2.350988562e-38
-0.4689397026 1.109173647 -0.4033972939 2.350988562e-38
-0.4584863329 1.103273984 -0.4002209372 2.350988562e-38
-0.42644895 1.122136965 -0.4021267512 2.350988562e-38
-0.3844395568 1.15921325 -0.4091147358 2.350988562e-38
-0.3793824293 1.192758998 -0.4192790771 2.350988562e-38
-0.3714929337 1.193253688 -0.4186438058 2.341768999e-38
-0.3688613847 1.210930755 -0.4240436121 2.350988562e-38
-0.3616950394 1.214079993 -0.4243612477 2.350988562e-38
-0.3545039246 1.217186844 -0.4246788834 2.350988562e-38
-0.3496243107 1.22845909 -0.42785524 2.350988562e-38
-0.3456354435 1.243371224 -0.4323021393 2.350988562e-38
-0.3332811688 1.228081453 -0.4262670617 2.350988562e-38
-0.3196082132 1.237587402 -0.4281728757 2.350988562e-38
-0.3085365984 1.225732248 -0.4234083407 2.350988562e-38
-0.303267977 1.236811639 -0.4265846974 2.350988562e-38
-0.2869950822 1.235821905 -0.4249965191 2.341768999e-38
-0.2775274009 1.229235218 -0.4221377981 2.350988562e-38
-0.2722143262 1.241103114 -0.4256317904 2.350988562e-38
-0.2651863108 1.245532302 -0.4265846974 2.350988562e-38
-0.2539751173 1.269147891 -0.433572682 2.350988562e-38
0.4011462816 1.064358316 -0.3947645316 2.350988562e-38
0.402251975 1.047765572 -0.3895184914 2.350988562e-38
0.4059213622 1.038238769 -0.3868954712 2.350988562e-38
0.4195610981 1.017490452 -0.3819773084 2.350988562e-38
0.4203140469 1.001829578 -0.3770591457 2.350988562e-38
0.4179241804 0.9792470856 -0.3695179628 2.350988562e-38
2.284880051 4.774725549 -1.837097733 2.350988562e-38
2.314547221 4.761465561 -1.837425611 2.350988562e-38
2.343719453 4.747174133 -1.837425611 2.350988562e-38
2.371109797 4.729325887 -1.836114101 2.350988562e-38
2.401369518 4.717213728 -1.837097733 2.350988562e-38
2.425063663 4.692319246 -1.833163203 2.350988562e-38
2.450298456 4.670658317 -1.830540183 2.350988562e-38
2.47846694 4.654701768 -1.830212305 2.350988562e-38
2.501591571 4.629432913 -1.826277775 2.350988562e-38
2.527224886 4.609026095 -1.82431051 2.350988562e-38
2.551324205 4.586002504 -1.821359612 2.350988562e-38
2.580344042 4.571907001 -1.822015367 2.350988562e-38
2.610225684 4.559267702 -1.823326877 2.350988562e-38
2.635779676 4.539080985 -1.82168749 2.341768999e-38
2.658307867 4.513868225 -1.818080837 2.350988562e-38
2.684501223 4.495038925 -1.817097205 2.350988562e-38
2.70860621 4.472825827 -1.814802062 2.350988562e-38
2.730068257 4.446460963 -1.810867532 2.350988562e-38
2.762791471 4.438448234 -1.814474184 2.350988562e-38
2.792494025 4.425407282 -1.816113572 2.350988562e-38
2.822140466 4.412168783 -1.81775296 2.350988562e-38
2.856868665 4.406660006 -1.822671122 2.350988562e-38
2.885409959 4.391416253 -1.823654755 2.350988562e-38
2.909682831 4.369697338 -1.822015367 2.350988562e-38
2.936440016 4.351761601 -1.822015367 2.350988562e-38
2.962020212 4.33210231 -1.821359612 2.350988562e-38
2.989083725 4.314622715 -1.82168749 2.341768999e-38
3.019300711 4.301613601 -1.823982632 2.350988562e-38
3.042900672 4.279156996 -1.822343245 2.350988562e-38
3.075173949 4.268837447 -1.825949898 2.341768999e-38
3.103536706 4.252940707 -1.827261408 2.341768999e-38
3.127889157 4.231538599 -1.826277775 2.341768999e-38
3.145301345 4.200922948 -1.821359612 2.332549436e-38
3.164168429 4.172511621 -1.817425082 2.332549436e-38
3.189710914 4.153018102 -1.817425082 2.323329873e-38
3.20933296 4.125911309 -1.814146307 2.323329873e-38
3.231665664 4.10243095 -1.812506919 2.323329873e-38
3.258544298 4.084740148 -1.813490552 2.323329873e-38
3.255644321 4.030129435 -1.798080309 2.350988562e-38
3.331753235 4.072963279 -1.826277775 2.304890747e-38
3.330165771 4.020431233 -1.811851164 2.332549436e-38
3.355986161 4.00136971 -1.812506919 2.332549436e-38
3.378640373 3.978542147 -1.811523287 2.332549436e-38
3.402988646 3.957736304 -1.811523287 2.350988562e-38
3.429069727 3.938919074 -1.812506919 2.350988562e-38
3.460669965 3.92630919 -1.81644145 2.341768999e-38
3.484696199 3.905001006 -1.81644145 2.341768999e-38
3.507324597 3.8821438 -1.815785695 2.350988562e-38
3.531716568 3.861247282 -1.816113572 2.350988562e-38
3.557267876 3.841583919 -1.817097205 2.350988562e-38
3.578187965 3.816927717 -1.815785695 2.350988562e-38
3.609995156 3.803808733 -1.820048102 2.350988562e-38
3.680062072 3.737389254 -1.82037598 2.350988562e-38
3.668910365 3.680615324 -1.803654226 2.350988562e-38
3.7142407 3.680643218 -1.814802062 2.350988562e-38
3.742155693 3.663070548 -1.817425082 2.350988562e-38
3.767957206 3.643323613 -1.81906447 2.341768999e-38
3.788874944 3.618830254 -1.818408715 2.350988562e-38
3.817879979 3.601997107 -1.82168749 2.341768999e-38
3.839218419 3.57785915 -1.821359612 2.341768999e-38
3.862489612 3.555514449 -1.822015367 2.341768999e-38
3.881437208 3.529205529 -1.820703857 2.341768999e-38
3.898801738 3.501535551 -1.818736592 2.341768999e-38
3.922333543 3.47942781 -1.819720225 2.341768999e-38
3.942898514 3.454672748 -1.819392347 2.341768999e-38
3.974737266 3.439687606 -1.82431051 2.332549436e-38
3.998640556 3.417689562 -1.82562202 2.341768999e-38
4.026754825 3.39918394 -1.828900795 2.341768999e-38
4.018511025 3.35021424 -1.815785695 2.350988562e-38
0.467496174 0.3849118252 -0.210169489 2.350988562e-38
0.4883904506 0.3921587542 -0.2173827944 2.350988562e-38
0.498190024 0.3950242672 -0.2206615696 2.350988562e-38
0.497768268 0.3848361404 -0.218366427 2.350988562e-38
0.4805144182 0.3575613933 -0.2078743464 2.350988562e-38
4.364623839 2.699002125 -1.781030678 2.350988562e-38
4.356099832 2.65692062 -1.770866475 2.341768999e-38
4.343986522 2.613098018 -1.759390761 2.332549436e-38
4.359125903 2.58591263 -1.759062884 2.341768999e-38
4.35941708 2.550053815 -1.752833211 2.350988562e-38
4.356159445 2.512401168 -1.745292028 2.341768999e-38
4.345213368 2.470682279 -1.734799948 2.341768999e-38
4.339688995 2.432426252 -1.72660301 2.350988562e-38
4.337167182 2.396158859 -1.719717582 2.341768999e-38
4.328556428 2.356852007 -1.710537011 2.341768999e-38
4.325454687 2.320868165 -1.703651583 2.332549436e-38
4.323745353 2.28589457 -1.697421911 2.341768999e-38
4.320932402 2.250593232 -1.69086436 2.341768999e-38
4.322892894 2.2180004 -1.686274075 2.350988562e-38
4.323773368 2.18504237 -1.681355912 2.341768999e-38
4.316800706 2.148369014 -1.673486852 2.350988562e-38
4.317176564 2.115605361 -1.668568689 2.341768999e-38
4.317313358 2.082918217 -1.663650526 2.350988562e-38
4.31635867 2.049903997 -1.658404486 2.341768999e-38
4.31858527 2.0185803 -1.654469956 2.341768999e-38
4.321448651 1.987701414 -1.650863303 2.341768999e-38
4.327538792 1.958421564 -1.64856816 2.350988562e-38
4.335158668 1.929910345 -1.646928773 2.341768999e-38
4.339130141 1.899863776 -1.643977875 2.341768999e-38
4.342896399 1.869841257 -1.641026977 2.350988562e-38
4.339497987 1.836898068 -1.63545306 2.341768999e-38
4.347198368 1.808785157 -1.63414155 2.341768999e-38
4.351219501 1.779216722 -1.631518529 2.350988562e-38
4.358548184 1.751075898 -1.630207019 2.341768999e-38
4.370089299 1.724646188 -1.630534897 2.341768999e-38
4.373542266 1.69506813 -1.627911877 2.350988562e-38
4.38121182 1.667192694 -1.626928244 2.350988562e-38
4.386934058 1.638625859 -1.625288857 2.350988562e-38
4.383600752 1.606800317 -1.620370694 2.341768999e-38
4.386265472 1.577315338 -1.617747674 2.350988562e-38
4.383388071 1.545972916 -1.613157388 2.341768999e-38
4.378505966 1.514107857 -1.607911348 2.341768999e-38
4.384135047 1.486000286 -1.606599838 2.350988562e-38
4.377928832 1.454009679 -1.60102592 2.350988562e-38
4.385869678 1.426827579 -1.600698043 2.350988562e-38
4.397242421 1.400749764 -1.601681675 2.341768999e-38
4.399441222 1.371773908 -1.599386533 2.350988562e-38
4.412293465 1.346132007 -1.60102592 2.350988562e-38
4.418659561 1.318493087 -1.600370165 2.350988562e-38
4.422131912 1.290033042 -1.598730778 2.350988562e-38
4.433598258 1.263911059 -1.600042288 2.350988562e-38
4.435809431 1.235162707 -1.598075023 2.350988562e-38
4.441481476 1.207426181 -1.597419268 2.350988562e-38
4.451545907 1.180877727 -1.5984029 2.341768999e-38
4.45504941 1.15259483 -1.59709139 2.350988562e-38
4.462037734 1.125237463 -1.59709139 2.341768999e-38
4.472527831 1.098739262 -1.5984029 2.350988562e-38
4.47734776 1.070836166 -1.597747145 2.341768999e-38
4.490274971 1.044842267 -1.600042288 2.350988562e-38
4.501208648 1.018313075 -1.601681675 2.350988562e-38
4.507372166 0.9906750085 -1.601681675 2.350988562e-38
4.514289907 0.9631967776 -1.602009553 2.350988562e-38
4.51178895 0.9337563327 -1.599058655 2.341768999e-38
4.52113853 0.9067980632 -1.600370165 2.350988562e-38
4.512706497 0.8763383955 -1.595452002 2.350988562e-38
4.52171259 0.8493300538 -1.596763513 2.341768999e-38
4.526838861 0.8215693585 -1.596763513 2.341768999e-38
4.529003039 0.7932887515 -1.59577988 2.350988562e-38
4.536579918 0.7659562195 -1.596763513 2.350988562e-38
4.543991788 0.7385605548 -1.597747145 2.341768999e-38
4.558705325 0.7122694527 -1.601353798 2.341768999e-38
4.558318546 0.6835838176 -1.59971441 2.341768999e-38
4.564297359 0.6558703768 -1.600370165 2.341768999e-38
4.571979471 0.6283665555 -1.601681675 2.341768999e-38
4.576685683 0.6004244747 -1.602009553 2.341768999e-38
4.582158524 0.5725654304 -1.602665308 2.341768999e-38
4.591214249 0.5451073525 -1.604632573 2.341768999e-38
4.596350131 0.5171371789 -1.605288328 2.332549436e-38
4.594739562 0.4884254593 -1.60364894 2.341768999e-38
4.5938899 0.4598470889 -1.60233743 2.341768999e-38
4.591922079 0.4312092222 -1.600698043 2.341768999e-38
4.593540381 0.4029430472 -1.600370165 2.341768999e-38
4.59215994 0.3744429188 -1.599058655 2.350988562e-38
4.599081276 0.346613898 -1.600698043 2.341768999e-38
4.609603681 0.3189748912 -1.60364894 2.341768999e-38
4.615245495 0.2909226206 -1.60496045 2.341768999e-38
4.617886878 0.2626521763 -1.605288328 2.341768999e-38
4.620355058 0.2343602687 -1.605616206 2.341768999e-38
4.621706089 0.2060058913 -1.605616206 2.341768999e-38
4.618162998 0.1774623776 -1.603976818 2.332549436e-38
4.623886092 0.1492749362 -1.605616206 2.341768999e-38
4.6181042 0.1207276736 -1.603321063 2.350988562e-38
4.622536161 0.09246482031 -1.604632573 2.341768999e-38
4.628684274 0.06417831671 -1.606599838 2.341768999e-38
4.628046239 0.03576873456 -1.606271961 2.341768999e-38
4.624399714 0.007364885062 -1.60496045 2.341768999e-38
4.627191982 -0.02102291322 -1.605944083 2.341768999e-38
4.629809881 -0.04944469981 -1.606927716 2.332549436e-38
4.619028886 -0.07767701484 -1.603321063 2.341768999e-38
4.616576374 -0.1059740201 -1.602665308 2.341768999e-38
4.615839224 -0.1342988053 -1.602665308 2.341768999e-38
4.623425499 -0.1629179546 -1.605616206 2.341768999e-38
4.630834029 -0.1916352459 -1.608567103 2.341768999e-38
4.629571003 -0.2200459018 -1.608567103 2.350988562e-38
4.63945402 -0.2490559738 -1.612501633 2.341768999e-38
4.635009405 -0.2773491527 -1.611518001 2.341768999e-38
4.631335031 -0.3056593859 -1.610862246 2.341768999e-38
4.627487816 -0.3339349748 -1.610206491 2.350988562e-38
4.617817039 -0.3617321982 -1.607583471 2.341768999e-38
4.615510562 -0.3900597814 -1.607583471 2.350988562e-38
4.615852891 -0.4186286688 -1.608567103 2.341768999e-38
4.617898929 -0.4473986358 -1.610206491 2.341768999e-38
4.617886034 -0.4760157167 -1.611190123 2.350988562e-38
4.61957397 -0.5048547399 -1.612829511 2.350988562e-38
4.620143202 -0.5336239855 -1.614141021 2.341768999e-38
4.617719772 -0.5620767563 -1.614468899 2.350988562e-38
4.62074357 -0.5912392888 -1.616764041 2.350988562e-38
4.618901464 -0.6198318086 -1.617419796 2.341768999e-38
4.617817913 -0.6485553658 -1.618403429 2.350988562e-38
4.613751523 -0.6768775549 -1.618403429 2.341768999e-38
4.609511428 -0.70517426 -1.618403429 2.341768999e-38
4.609762595 -0.73418737 -1.620042816 2.341768999e-38
4.611695153 -0.7635387088 -1.622337959 2.350988562e-38
4.612509761 -0.7927813361 -1.624305224 2.341768999e-38
4.612208858 -0.8218969322 -1.625944612 2.341768999e-38
4.602433801 -0.8493242312 -1.624305224 2.350988562e-38
4.602703592 -0.8786110818 -1.626272489 2.350988562e-38
4.595372171 -0.9064705408 -1.625616734 2.350988562e-38
4.586020783 -0.9338960961 -1.624305224 2.341768999e-38
4.570958707 -0.9600759092 -1.621026449 2.350988562e-38
4.569598434 -0.9891040082 -1.622665836 2.350988562e-38
4.566209666 -1.017740481 -1.623649469 2.341768999e-38
4.556195708 -1.044894358 -1.622337959 2.350988562e-38
4.557054608 -1.074565548 -1.624960979 2.350988562e-38
4.549457258 -1.102284422 -1.624633102 2.341768999e-38
4.54077458 -1.12972244 -1.623977347 2.350988562e-38
4.539249389 -1.158965099 -1.625944612 2.350988562e-38
4.530224854 -1.186316949 -1.625288857 2.341768999e-38
4.517385957 -1.212622006 -1.623321591 2.341768999e-38
4.515325803 -1.241820449 -1.625288857 2.350988562e-38
4.522170649 -1.273600239 -1.630534897 2.341768999e-38
4.516086369 -1.301847137 -1.631190652 2.341768999e-38
4.524323771 -1.334343185 -1.637092447 2.341768999e-38
4.537758662 -1.368625939 -1.644961508 2.350988562e-38
4.526567152 -1.395608312 -1.643977875 2.350988562e-38
4.526929257 -1.426195299 -1.64725665 2.341768999e-38
4.520790975 -1.454813366 -1.648240283 2.341768999e-38
4.508189268 -1.481345382 -1.646928773 2.350988562e-38
4.504389136 -1.510781709 -1.648896038 2.341768999e-38
4.500397296 -1.540227106 -1.650863303 2.341768999e-38
4.500673139 -1.57123724 -1.654469956 2.341768999e-38
4.497177495 -1.601041221 -1.656765098 2.350988562e-38
4.496149438 -1.63182829 -1.660043874 2.341768999e-38
4.498456737 -1.66397389 -1.664634159 2.341768999e-38
4.499654343 -1.695875892 -1.668896566 2.341768999e-38
4.497101558 -1.726500691 -1.671847464 2.332549436e-38
4.494342062 -1.757157897 -1.674798362 2.341768999e-38
4.490497628 -1.78749673 -1.677421382 2.341768999e-38
4.489076554 -1.818918754 -1.681028035 2.341768999e-38
4.488311961 -1.850750629 -1.684962565 2.341768999e-38
4.486454196 -1.882275949 -1.688569218 2.332549436e-38
4.48437818 -1.913847999 -1.69217587 2.341768999e-38
4.481216666 -1.945089133 -1.695454645 2.350988562e-38
4.482161682 -1.978270701 -1.700372808 2.341768999e-38
4.482867729 -2.011536882 -1.705290971 2.341768999e-38
4.4807552 -2.043709867 -1.709225501 2.341768999e-38
4.48613026 -2.079508252 -1.716110929 2.350988562e-38
4.485251415 -2.112631315 -1.720701214 2.341768999e-38
4.483282369 -2.145413876 -1.724963622 2.341768999e-38
4.477680854 -2.176599546 -1.72791452 2.350988562e-38
4.472712245 -2.208215331 -1.731193295 2.350988562e-38
4.474280098 -2.243239233 -1.73709509 2.341768999e-38
4.441067716 -2.260793184 -1.729553907 2.350988562e-38
0.5255332848 -0.3008729839 -0.210169489 2.350988562e-38
0.5253112083 -0.3050407365 -0.2108252441 2.350988562e-38
0.5323840973 -0.3135317123 -0.2144318968 2.350988562e-38
0.5280170227 -0.3153392812 -0.2134482642 2.350988562e-38
0.5325369864 -0.3224880745 -0.2160712843 2.350988562e-38
0.5305482119 -0.3257495893 -0.2160712843 2.350988562e-38
0.5349557231 -0.3329927559 -0.2186943045 2.350988562e-38
0.5392940812 -0.3403021244 -0.2213173246 2.350988562e-38
0.5443584862 -0.3481861614 -0.2242682223 2.341768999e-38
0.540626394 -0.3504918923 -0.2236124673 2.350988562e-38
0.5400447172 -0.3548400596 -0.2242682223 2.350988562e-38
0.5394299755 -0.3591942455 -0.2249239773 2.350988562e-38
0.5426976407 -0.3661963166 -0.22721912 2.350988562e-38
0.5326419222 -0.3641871836 -0.2239403448 2.350988562e-38
4.429809949 -3.191134899 -1.894804176 2.350988562e-38
4.414724922 -3.221596958 -1.896771441 2.350988562e-38
4.403231188 -3.254801715 -1.900378094 2.350988562e-38
4.386202178 -3.284023006 -1.901689604 2.350988562e-38
4.375002262 -3.317724501 -1.905624134 2.350988562e-38
4.352315019 -3.34278021 -1.904640502 2.341768999e-38
4.325010951 -3.364202272 -1.901689604 2.341768999e-38
4.303545058 -3.390092111 -1.901361727 2.341768999e-38
4.280447278 -3.414666923 -1.900378094 2.350988562e-38
4.260149587 -3.441460636 -1.900705972 2.350988562e-38
4.236028056 -3.465142997 -1.899394462 2.341768999e-38
4.22923756 -3.503122263 -1.905952012 2.341768999e-38
4.223587601 -3.542362382 -1.913165317 2.350988562e-38
4.208973547 -3.574326331 -1.916444093 2.350988562e-38
4.187678993 -3.600700747 -1.91677197 2.341768999e-38
4.154818582 -3.617023441 -1.911853807 2.350988562e-38
4.136799051 -3.646196857 -1.913821072 2.350988562e-38
4.099546183 -3.658302003 -1.906935645 2.341768999e-38
4.082630099 -3.688454036 -1.909558665 2.350988562e-38
4.068286539 -3.721086458 -1.913493195 2.350988562e-38
4.051616385 -3.751755816 -1.916444093 2.350988562e-38
4.014735275 -3.76362313 -1.909886542 2.350988562e-38
3.992251789 -3.788836566 -1.91021442 2.350988562e-38
3.945085224 -3.790352872 -1.898738707 2.341768999e-38
3.923108222 -3.815805493 -1.899394462 2.341768999e-38
3.907025798 -3.84709659 -1.903001114 2.350988562e-38
3.882008746 -3.869663322 -1.902345359 2.350988562e-38
3.856196932 -3.891396896 -1.901361727 2.341768999e-38
3.844803256 -3.927811983 -1.9075914 2.341768999e-38
3.834420796 -3.965591588 -1.914476827 2.350988562e-38
3.80218606 -3.98084643 -1.910542297 2.350988562e-38
3.782226624 -4.00891141 -1.91283744 2.350988562e-38
3.776879578 -4.052777103 -1.922673765 2.350988562e-38
3.730187014 -4.052243016 -1.91152593 2.350988562e-38
3.711608192 -4.082044533 -1.914804705 2.350988562e-38
3.683335125 -4.101227356 -1.913165317 2.350988562e-38
3.653085738 -4.118096857 -1.910542297 2.341768999e-38
3.638955166 -4.153224331 -1.916444093 2.350988562e-38
3.619584999 -4.182618025 -1.919722868 2.350988562e-38
3.596921845 -4.208339378 -1.921362255 2.350988562e-38
3.573469814 -4.233218052 -1.922673765 2.350988562e-38
3.550452758 -4.258692887 -1.924313153 2.350988562e-38
3.521252641 -4.276751271 -1.922673765 2.350988562e-38
3.496136702 -4.29974275 -1.92332952 2.350988562e-38
3.470871146 -4.322586974 -1.923985275 2.350988562e-38
3.447804674 -4.348243984 -1.925952541 2.350988562e-38
3.426301111 -4.376012023 -1.928903438 2.350988562e-38
3.377428289 -4.368551842 -1.916444093 2.341768999e-38
3.33852184 -4.373423559 -1.909558665 2.332549436e-38
3.287742266 -4.36213977 -1.895787809 2.31411031e-38
3.272194328 -4.397389045 -1.902345359 2.323329873e-38
3.266964178 -4.447076933 -1.915132582 2.341768999e-38
3.220203745 -4.44027188 -1.903656869 2.31411031e-38
3.212695637 -4.487600914 -1.91546046 2.341768999e-38
3.170924374 -4.487169605 -1.906935645 2.323329873e-38
3.145493778 -4.509640971 -1.908247155 2.323329873e-38
3.115085437 -4.524965695 -1.906607767 2.323329873e-38
3.089916697 -4.547901451 -1.908247155 2.323329873e-38
3.051430955 -4.551081825 -1.901689604 2.304890747e-38
3.027618874 -4.576022441 -1.904312624 2.31411031e-38
3.004648335 -4.602424083 -1.9075914 2.31411031e-38
2.990164394 -4.642217567 -1.916444093 2.332549436e-38
2.966184236 -4.667653581 -1.91939499 2.332549436e-38
2.930463131 -4.674559742 -1.914804705 2.323329873e-38
2.901228536 -4.691649226 -1.914476827 2.323329873e-38
2.872878434 -4.710169046 -1.914804705 2.323329873e-38
2.843436326 -4.72689849 -1.914476827 2.332549436e-38
2.815825085 -4.746694041 -1.91546046 2.323329873e-38
2.780922885 -4.754096815 -1.91152593 2.332549436e-38
2.753115914 -4.773525839 -1.912509562 2.323329873e-38
2.729844756 -4.801004981 -1.91677197 2.332549436e-38
2.698487308 -4.814368232 -1.91546046 2.323329873e-38
2.673921411 -4.839931271 -1.919067113 2.332549436e-38
2.646884399 -4.861225247 -1.921034378 2.323329873e-38
2.6277266 -4.897353718 -1.928903438 2.304890747e-38
2.587913478 -4.895010916 -1.921690133 2.323329873e-38
2.560011615 -4.914987293 -1.92332952 2.31411031e-38
2.525061703 -4.921356775 -1.919722868 2.332549436e-38
2.507600301 -4.962052705 -1.929559193 2.31411031e-38
2.471213652 -4.965504888 -1.924968908 2.332549436e-38
2.442362252 -4.983967835 -1.926280418 2.332549436e-38
2.416250812 -5.008219634 -1.929887071 2.323329873e-38
2.393175781 -5.039165272 -1.936116744 2.323329873e-38
2.365411279 -5.060601408 -1.938739764 2.323329873e-38
2.320103518 -5.044121891 -1.926936173 2.350988562e-38
2.266482406 -5.091200673 -1.934149479 2.350988562e-38
2.238232015 -5.111934931 -1.936772499 2.350988562e-38
2.141581302 -5.147034023 -1.934805234 2.350988562e-38
2.111747178 -5.164449834 -1.936444621 2.350988562e-38
2.077905832 -5.172050339 -1.934477356 2.350988562e-38
2.041276384 -5.172400083 -1.929887071 2.350988562e-38
1.984705208 -5.215602221 -1.936772499 2.350988562e-38
1.951012673 -5.223256972 -1.935133111 2.341768999e-38
1.918926643 -5.235129834 -1.935133111 2.350988562e-38
1.884530587 -5.240582683 -1.932837968 2.350988562e-38
1.854224833 -5.257392888 -1.934805234 2.350988562e-38
1.826562415 -5.282063885 -1.939723396 2.350988562e-38
1.795027692 -5.295856193 -1.940707029 2.350988562e-38
1.769347842 -5.327391587 -1.948248212 2.350988562e-38
1.734288171 -5.330960809 -1.945625192 2.350988562e-38
1.697817677 -5.329799872 -1.941362784 2.350988562e-38
1.662832947 -5.332901998 -1.938739764 2.341768999e-38
1.625117383 -5.326739704 -1.932837968 2.350988562e-38
1.591862275 -5.334800408 -1.932182213 2.341768999e-38
1.557246613 -5.338119039 -1.929887071 2.350988562e-38
1.52524021 -5.350299209 -1.930870703 2.350988562e-38
1.501505752 -5.392320657 -1.942674294 2.323329873e-38
1.469877807 -5.406902019 -1.944641559 2.323329873e-38
1.438611861 -5.423124337 -1.947264579 2.31411031e-38
1.407438729 -5.440080865 -1.950215477 2.304890747e-38
1.376804615 -5.459606836 -1.954150007 2.332549436e-38
1.341025356 -5.458777558 -1.950871232 2.350988562e-38
1.309263673 -5.474253633 -1.953494252 2.350988562e-38
1.275221423 -5.480343796 -1.952838497 2.350988562e-38
1.245114431 -5.503729632 -1.958412415 2.350988562e-38
1.210509545 -5.507575119 -1.957100905 2.350988562e-38
1.174327303 -5.503811906 -1.953166375 2.350988562e-38
1.141491748 -5.515539413 -1.954805762 2.350988562e-38
1.106884421 -5.518734555 -1.953494252 2.350988562e-38
1.074622114 -5.533768941 -1.95644515 2.350988562e-38
1.03785691 -5.525402797 -1.951199109 2.350988562e-38
1.002753238 -5.525160203 -1.948903967 2.350988562e-38
0.969973569 -5.537722845 -1.951199109 2.350988562e-38
0.9043691424 -5.564128668 -1.95644515 2.350988562e-38
0.8710862901 -5.575173404 -1.958412415 2.350988562e-38
0.8048890712 -5.601340131 -1.963986333 2.350988562e-38
0.7014160796 -5.613331678 -1.963330578 2.350988562e-38
0.6661804404 -5.610962898 -1.961035435 2.350988562e-38
0.6326902985 -5.623394053 -1.963986333 2.350988562e-38
0.598173891 -5.627170309 -1.963986333 2.350988562e-38
0.5299580772 -5.643492928 -1.967265108 2.350988562e-38
0.4973015604 -5.669225007 -1.975134168 2.350988562e-38
0.4313859165 -5.723887307 -1.992183799 2.350988562e-38
0.3961262501 -5.724541557 -1.991528044 2.350988562e-38
0.361825723 -5.740064265 -1.996118329 2.350988562e-38
0.2181278161 -5.676413349 -1.971527516 2.350988562e-38
0.1839035511 -5.696529466 -1.978085066 2.350988562e-38
0.07943703895 -5.729177575 -1.988577147 2.350988562e-38
0.009098153211 -5.712716051 -1.982675351 2.350988562e-38
-0.02587732622 -5.695659547 -1.976773556 2.350988562e-38
-0.1310799766 -5.710274296 -1.982347474 2.350988562e-38
-0.2001126193 -5.678967607 -1.972183271 2.350988562e-38
-0.2341731144 -5.658754587 -1.96562572 2.350988562e-38
-0.3036983886 -5.657341553 -1.966281475 2.350988562e-38
-0.4117239406 -5.70544466 -1.985298371 2.350988562e-38
-0.5183793647 -5.715716737 -1.991855922 2.350988562e-38
-0.5527117743 -5.704905885 -1.989232902 2.350988562e-38
-0.5868341904 -5.692949449 -1.986282004 2.350988562e-38
-0.6562176738 -5.681565498 -1.984970494 2.350988562e-38
-0.6931214591 -5.694312441 -1.990872289 2.350988562e-38
-0.7287674706 -5.695574816 -1.992839554 2.350988562e-38
-0.7615650906 -5.675078405 -1.987265636 2.350988562e-38
-0.7966351666 -5.672169775 -1.987921391 2.350988562e-38
-0.8285442032 -5.647545928 -1.981035964 2.350988562e-38
-0.8618955249 -5.633951063 -1.978085066 2.350988562e-38
-0.8940711203 -5.61362913 -1.972839026 2.350988562e-38
-0.9246410556 -5.584736734 -1.964642088 2.350988562e-38
-0.9598511211 -5.584544518 -1.966609353 2.350988562e-38
-0.9955908191 -5.58692047 -1.96956025 2.350988562e-38
-1.03499604 -5.608577484 -1.979396576 2.350988562e-38
-1.107217748 -5.613064516 -1.985626249 2.350988562e-38
-1.180287495 -5.619394624 -1.992839554 2.350988562e-38
-1.246279943 -5.591578234 -1.988249269 2.350988562e-38
-1.27972106 -5.580142682 -1.986937759 2.350988562e-38
-1.312851976 -5.567587904 -1.985298371 2.350988562e-38
-1.346099503 -5.555754968 -1.983986861 2.350988562e-38
-1.377426573 -5.5363896 -1.980052331 2.350988562e-38
-1.406697102 -5.509526533 -1.973494781 2.350988562e-38
-1.435450688 -5.481599491 -1.966609353 2.350988562e-38
-1.46807843 -5.469038866 -1.965297843 2.350988562e-38
-1.510376334 -5.491809414 -1.976773556 2.350988562e-38
-1.545837732 -5.488803949 -1.979068699 2.350988562e-38
-1.580795689 -5.483754322 -1.980708086 2.350988562e-38
-1.617887771 -5.485731246 -1.984970494 2.341768999e-38
-1.652335522 -5.478414235 -1.985954126 2.341768999e-38
-1.69009447 -5.48171435 -1.990872289 2.341768999e-38
-1.723413945 -5.470339873 -1.990544412 2.341768999e-38
-1.757236276 -5.460561528 -1.990872289 2.350988562e-38
-1.795722084 -5.464934193 -1.996446207 2.350988562e-38
-1.823813035 -5.437690682 -1.990544412 2.350988562e-38
-1.861732307 -5.439804954 -1.995462574 2.341768999e-38
-1.893518362 -5.423819532 -1.993823187 2.304890747e-38
-1.920742505 -5.395188991 -1.987593514 2.323329873e-38
-1.949620645 -5.371757446 -1.983331106 2.304890747e-38
-1.976317226 -5.342858799 -1.977101433 2.286451621e-38
-2.022390307 -5.365992508 -1.990216534 2.332549436e-38
-2.064758033 -5.378177152 -1.999397105 2.341768999e-38
-2.095311031 -5.359247749 -1.997101962 2.341768999e-38
-2.116275937 -5.31644725 -1.985954126 2.350988562e-38
-2.153114476 -5.313868853 -1.989888657 2.341768999e-38
-2.186759646 -5.303177706 -1.990872289 2.341768999e-38
-2.217796206 -5.286175545 -1.989560779 2.350988562e-38
-2.253898109 -5.281156864 -1.992839554 2.341768999e-38
-2.281746408 -5.256828524 -1.988905024 2.350988562e-38
-2.326928514 -5.27211459 -2.00005286 2.341768999e-38
-2.359620557 -5.258599503 -2.000380737 2.341768999e-38
-2.385569641 -5.230269594 -1.995134697 2.341768999e-38
-2.408478989 -5.195819953 -1.987593514 2.332549436e-38
-2.421796873 -5.141629671 -1.972511148 2.332549436e-38
-2.435764509 -5.090029575 -1.958412415 2.341768999e-38
-2.437213267 -5.01381304 -1.934805234 2.341768999e-38
-2.43321909 -4.928454516 -1.9075914 2.332549436e-38
-2.434621666 -4.856004259 -1.885295728 2.341768999e-38
-2.422798838 -4.759309156 -1.853491609 2.341768999e-38
-2.4185575 -4.679730301 -1.82824504 2.341768999e-38
-2.421332005 -4.615443657 -1.808900267 2.341768999e-38
-2.42252161 -4.549633258 -1.788899738 2.341768999e-38
-2.434223755 -4.504762368 -1.777096147 2.332549436e-38
-2.449554962 -4.46737558 -1.768243454 2.341768999e-38
-2.464978759 -4.430796658 -1.759718639 2.341768999e-38
-2.481439367 -4.396665649 -1.752177456 2.341768999e-38
-2.506023184 -4.377257734 -1.750538068 2.350988562e-38
-2.529039139 -4.355262911 -1.747915048 2.350988562e-38
-2.555714921 -4.339663031 -1.747915048 2.350988562e-38
-2.589560364 -4.336066057 -1.752833211 2.341768999e-38
-2.617585297 -4.322519484 -1.753816844 2.341768999e-38
-2.652956063 -4.320868366 -1.759718639 2.341768999e-38
-2.679917712 -4.305310827 -1.760046516 2.350988562e-38
-2.705275851 -4.287188207 -1.759390761 2.350988562e-38
-2.733057749 -4.272895778 -1.760374394 2.341768999e-38
-2.75151553 -4.244155005 -1.755456231 2.350988562e-38
-2.779580467 -4.230350285 -1.756767741 2.341768999e-38
-2.799201802 -4.203779371 -1.752833211 2.341768999e-38
-2.816488265 -4.173994841 -1.747587171 2.323329873e-38
-2.817518416 -4.120761226 -1.732504805 2.31411031e-38
-2.822844187 -4.074662597 -1.720373337 2.304890747e-38
-2.82499734 -4.024788566 -1.706602481 2.31411031e-38
-2.8233607 -3.970423287 -1.69086436 2.304890747e-38
-2.825029615 -3.921596764 -1.677421382 2.31411031e-38
-2.830661597 -3.879005494 -1.666601424 2.31411031e-38
-2.835316401 -3.835734001 -1.655453588 2.31411031e-38
-2.837282635 -3.789527433 -1.642994243 2.323329873e-38
-2.841072753 -3.746453245 -1.631846407 2.31411031e-38
-2.842140034 -3.700479236 -1.619387061 2.31411031e-38
-2.845651094 -3.658362711 -1.608567103 2.31411031e-38
-2.848753036 -3.616343347 -1.597747145 2.31411031e-38
-2.850858047 -3.573686056 -1.586599309 2.31411031e-38
-2.852547586 -3.531140032 -1.575451474 2.31411031e-38
-2.850832301 -3.485052601 -1.562664251 2.295671184e-38
-2.848057081 -3.43839269 -1.54954915 2.304890747e-38
-2.847852945 -3.395518327 -1.538073437 2.295671184e-38
-2.85273436 -3.359257758 -1.529548621 2.286451621e-38
-2.859742314 -3.32593116 -1.522335316 2.295671184e-38
-2.867069515 -3.293358169 -1.515449888 2.295671184e-38
-2.869107789 -3.255151283 -1.50594144 2.295671184e-38
-2.868898802 -3.214929529 -1.495449359 2.31411031e-38
-2.867038362 -3.173431741 -1.484301524 2.304890747e-38
-2.863502276 -3.130684518 -1.472497933 2.286451621e-38
-2.864685408 -3.093646523 -1.463317363 2.295671184e-38
-2.870045312 -3.061537183 -1.456431935 2.304890747e-38
-2.874469211 -3.028793839 -1.449218629 2.304890747e-38
-2.87663631 -2.994068306 -1.441021692 2.295671184e-38
-2.884414337 -2.96552579 -1.435775651 2.277232058e-38
-2.88134543 -2.926230383 -1.425283571 2.277232058e-38
-2.881905415 -2.891099585 -1.416758755 2.286451621e-38
-2.878788185 -2.85274786 -1.406594552 2.304890747e-38
-2.884086076 -2.823135014 -1.400692757 2.277232058e-38
-2.883017005 -2.787654783 -1.391840064 2.268012495e-38
-2.879572284 -2.750337093 -1.382003738 2.286451621e-38
-2.88058907 -2.71770552 -1.374462555 2.277232058e-38
-2.881314417 -2.68516558 -1.366921372 2.286451621e-38
-2.885919897 -2.656558573 -1.361347455 2.286451621e-38
-2.895176105 -2.632445399 -1.358068679 2.286451621e-38
-2.902839585 -2.607056395 -1.354134149 2.286451621e-38
-2.897579734 -2.570388112 -1.344297824 2.31411031e-38
-0.5159193461 -0.4301195963 -0.2331209153 2.350988562e-38
-0.5145617815 -0.418392084 -0.2301700176 2.350988562e-38
-0.5193292122 -0.4170013902 -0.2311536502 2.350988562e-38
-0.5218781084 -0.4138069961 -0.2311536502 2.350988562e-38
-2.863116644 -2.023263472 -1.216753469 2.350988562e-38
-2.881676078 -2.009981334 -1.219376489 2.332549436e-38
-2.9336407 -2.019582476 -1.236098243 2.277232058e-38
-2.925660315 -1.987740225 -1.227573427 2.231134243e-38
-2.926816415 -1.96238577 -1.222983142 2.203475554e-38
-2.923832521 -1.93448582 -1.216753469 2.231134243e-38
-2.928527665 -1.911861144 -1.213802572 2.212695117e-38
-2.935438174 -1.890786587 -1.211835306 2.22191468e-38
-2.932632366 -1.863618999 -1.205933511 2.240353806e-38
-2.936007728 -1.840571707 -1.202654736 2.22191468e-38
-2.937603968 -1.816559604 -1.198720206 2.22191468e-38
-2.939822975 -1.793089365 -1.195113553 2.231134243e-38
-2.943483972 -1.770634438 -1.192162655 2.22191468e-38
-2.951042923 -1.750612241 -1.190851145 2.22191468e-38
-2.958467109 -1.730564018 -1.189539635 2.212695117e-38
-2.952662648 -1.702938834 -1.182982085 2.304890747e-38
-2.955664886 -1.680586944 -1.180031187 2.295671184e-38
-2.937077778 -1.646252784 -1.168555474 2.203475554e-38
-2.942989132 -1.625915992 -1.166916086 2.194255991e-38
-2.94378344 -1.602858141 -1.163309434 2.212695117e-38
-2.944405933 -1.579851943 -1.159702781 2.212695117e-38
-2.943186908 -1.556015543 -1.155440373 2.203475554e-38
-2.945138141 -1.533999459 -1.152489476 2.22191468e-38
-2.944408673 -1.510724363 -1.148554945 2.203475554e-38
-2.94687752 -1.48922057 -1.145931925 2.185036428e-38
-2.94750205 -1.466901648 -1.14265315 2.22191468e-38
-2.952205628 -1.446709895 -1.141013763 2.185036428e-38
-2.946562112 -1.42158963 -1.135439845 2.212695117e-38
-2.952669236 -1.402267265 -1.134456212 2.212695117e-38
-2.958650273 -1.382923523 -1.13347258 2.185036428e-38
-2.955064092 -1.359216677 -1.128882294 2.175816865e-38
-2.954741582 -1.337164127 -1.125603519 2.175816865e-38
-2.958575336 -1.317087928 -1.123964132 2.194255991e-38
-2.960543321 -1.296257275 -1.121668989 2.203475554e-38
-2.964970429 -1.276572942 -1.120357479 2.212695117e-38
-2.972747518 -1.258356195 -1.120357479 2.286451621e-38
-2.981284916 -1.240454989 -1.120685356 2.295671184e-38
-2.978346789 -1.217848102 -1.116750826 2.268012495e-38
-2.977873729 -1.196380697 -1.113799929 2.268012495e-38
-2.972855841 -1.173231058 -1.109209643 2.268012495e-38
-2.987045685 -1.1576991 -1.111832663 2.286451621e-38
-2.996741821 -1.140357115 -1.112816296 2.295671184e-38
-3.001912512 -1.121286849 -1.112160541 2.286451621e-38
-3.00696207 -1.10219609 -1.111504786 2.286451621e-38
-3.006556511 -1.081167506 -1.108881766 2.304890747e-38
-3.021152225 -1.065527268 -1.111832663 2.31411031e-38
-3.030311837 -1.047896017 -1.112816296 2.31411031e-38
-3.02326374 -1.024733666 -1.107898133 2.304890747e-38
-3.038460129 -1.009141676 -1.111176908 2.31411031e-38
-3.04010303 -0.9890177236 -1.109537521 2.31411031e-38
-3.043413844 -0.9694851489 -1.108553888 2.31411031e-38
-3.049305201 -0.9507928623 -1.108553888 2.31411031e-38
-3.049660136 -0.9304107154 -1.106586623 2.31411031e-38
-3.04444829 -0.908439306 -1.102652093 2.295671184e-38
-3.050871976 -0.8900063893 -1.10297997 2.304890747e-38
-3.05627552 -0.8712698366 -1.10297997 2.323329873e-38
-3.063384191 -0.8530073186 -1.103635726 2.31411031e-38
-3.064002307 -0.8329555405 -1.101996338 2.304890747e-38
-3.070881823 -0.8146239583 -1.102652093 2.304890747e-38
-3.069420206 -0.7941096796 -1.10035695 2.31411031e-38
-3.073318949 -0.7750301149 -1.100029073 2.323329873e-38
-3.077099148 -0.7559326122 -1.099701195 2.31411031e-38
-3.079841923 -0.7365981588 -1.09904544 2.31411031e-38
-3.077862659 -0.7161879887 -1.096750298 2.295671184e-38
-3.064691906 -0.6933284109 -1.090520625 2.31411031e-38
-3.065197612 -0.6736995656 -1.089209115 2.31411031e-38
-3.060958342 -0.6531049784 -1.086258217 2.31411031e-38
-3.074159254 -0.6362256087 -1.089536992 2.295671184e-38
-3.075226372 -0.6167936017 -1.08855336 2.31411031e-38
-3.081735242 -0.5984530391 -1.089536992 2.304890747e-38
-3.084420785 -0.579358201 -1.089209115 2.31411031e-38
-3.086988061 -0.5602529445 -1.088881237 2.31411031e-38
-3.090367597 -0.5413009952 -1.088881237 2.304890747e-38
-3.094562318 -0.5224859468 -1.089209115 2.31411031e-38
-3.099574944 -0.5037913573 -1.08986487 2.31411031e-38
-3.105407989 -0.4852007512 -1.090848502 2.304890747e-38
-3.10645812 -0.4658569775 -1.090192747 2.31411031e-38
-3.107387856 -0.446518595 -1.089536992 2.323329873e-38
-3.106325458 -0.4269290885 -1.088225482 2.304890747e-38
-3.104203102 -0.4072465635 -1.086586095 2.31411031e-38
-3.105706054 -0.3880747281 -1.086258217 2.31411031e-38
-3.105214378 -0.3686770202 -1.085274584 2.31411031e-38
-3.107418083 -0.3496168427 -1.085274584 2.304890747e-38
-3.10762594 -0.3303437782 -1.084618829 2.304890747e-38
-3.109594391 -0.3112695253 -1.084618829 2.31411031e-38
-3.11238635 -0.2922718796 -1.084946707 2.31411031e-38
-3.121649958 -0.2738295611 -1.087569727 2.295671184e-38
-3.120446595 -0.2544399903 -1.086586095 2.31411031e-38
-3.121007019 -0.2352175019 -1.086258217 2.31411031e-38
-3.120506601 -0.2159325015 -1.085602462 2.304890747e-38
-3.15288681 -0.1987426442 -1.09642242 2.249573369e-38
-3.118205478 -0.1773545946 -1.083963074 2.304890747e-38
-3.11074344 -0.1577875854 -1.081012177 2.323329873e-38
-3.127697361 -0.1394126044 -1.086586095 2.295671184e-38
-3.144542303 -0.1208354824 -1.092160012 2.268012495e-38
-3.117841919 -0.1006546537 -1.082651564 2.304890747e-38
-3.119345229 -0.08154672924 -1.082979442 2.295671184e-38
-3.113175151 -0.06227299709 -1.080684299 2.304890747e-38
-3.112554017 -0.04315664358 -1.080356422 2.304890747e-38
-3.109926152 -0.02403565507 -1.079372789 2.31411031e-38
-3.113793964 -0.004959072761 -1.080684299 2.304890747e-38
-3.116599908 0.01415977761 -1.081667932 2.31411031e-38
-3.121177688 0.03333305207 -1.083307319 2.304890747e-38
-3.115246885 0.05238830162 -1.081340054 2.31411031e-38
-3.108090002 0.1095213205 -1.079372789 2.286451621e-38
-3.092256885 0.1279651581 -1.074126749 2.286451621e-38
-3.039512475 0.1444695984 -1.056093485 2.350988562e-38
-3.049889151 0.1637246774 -1.060028016 2.341768999e-38
-3.042225908 0.1820403594 -1.057732873 2.350988562e-38
-3.04199433 0.2007658942 -1.058060751 2.350988562e-38
-3.025545778 0.2556908296 -1.053798343 2.332549436e-38
-3.022038216 0.2740797563 -1.053142588 2.332549436e-38
-3.021239922 0.292708576 -1.053470465 2.332549436e-38
-3.026904948 0.3120159999 -1.056093485 2.323329873e-38
-3.027750859 0.3308907667 -1.057077118 2.323329873e-38
-3.030355962 0.3500044382 -1.058716506 2.323329873e-38
-3.035572379 0.4073575357 -1.062978913 2.332549436e-38
-3.034886813 0.4262385751 -1.063634668 2.332549436e-38
-3.042496193 0.4463607053 -1.067241321 2.332549436e-38
-3.025692266 0.4628777558 -1.062323158 2.323329873e-38
-3.021862183 0.4812857501 -1.061995281 2.31411031e-38
-3.052405341 0.5053737412 -1.073798871 2.332549436e-38
-3.067669845 0.5661018594 -1.082651564 2.286451621e-38
-3.076202098 0.5872168823 -1.086913972 2.295671184e-38
-3.085517136 0.6086406677 -1.091504257 2.31411031e-38
-3.048398554 0.6207750998 -1.079700667 2.268012495e-38
-3.036211245 0.6377203248 -1.076749769 2.249573369e-38
-3.047014514 0.6595359117 -1.081995809 2.185036428e-38
-3.046598695 0.6790417101 -1.083307319 2.194255991e-38
-3.0469789 0.698778381 -1.084946707 2.212695117e-38
-3.048150933 0.7187620646 -1.086913972 2.212695117e-38
-3.048274086 0.7385639317 -1.08855336 2.175816865e-38
-3.044601732 0.7574819751 -1.088881237 2.185036428e-38
-3.047219443 0.7780187162 -1.091504257 2.185036428e-38
-3.047871674 0.7981373866 -1.093471522 2.231134243e-38
-3.042004601 0.8165788262 -1.093143645 2.203475554e-38
-3.035115105 0.8347278066 -1.09248789 2.175816865e-38
-3.039938967 0.8561523423 -1.096094543 2.194255991e-38
-3.049152585 0.8789757854 -1.101340583 2.203475554e-38
-3.046420292 0.8984702158 -1.102324215 2.203475554e-38
-3.045372417 0.9185097742 -1.103963603 2.22191468e-38
-3.050512646 0.9405186451 -1.107898133 2.212695117e-38
-3.052793854 0.9617734218 -1.110849031 2.203475554e-38
-3.045935753 0.9801975078 -1.110521153 2.240353806e-38
-3.04704411 1.001227866 -1.113144174 2.231134243e-38
-3.052487209 1.023810711 -1.117406581 2.212695117e-38
-3.056873635 1.046191996 -1.121341111 2.231134243e-38
-3.056640279 1.067108605 -1.123636254 2.22191468e-38
-3.052705087 1.086794258 -1.124619887 2.231134243e-38
-3.057523704 1.109694806 -1.128882294 2.194255991e-38
-3.062175789 1.132695246 -1.133144702 2.22191468e-38
-3.064008243 1.154794861 -1.136423477 2.212695117e-38
-3.062156621 1.175605099 -1.138390742 2.22191468e-38
-3.064564096 1.198156021 -1.141997395 2.203475554e-38
-3.063298812 1.219383031 -1.144292538 2.194255991e-38
-3.053132425 1.237091807 -1.143308905 2.22191468e-38
-3.055091504 1.259763709 -1.146915558 2.22191468e-38
-3.056886946 1.282506079 -1.150522211 2.231134243e-38
-3.060255755 1.306059417 -1.154784618 2.212695117e-38
-3.061716976 1.328949895 -1.158391271 2.212695117e-38
-3.062147868 1.351525857 -1.161670046 2.203475554e-38
-3.061554734 1.373770237 -1.164620944 2.231134243e-38
-3.059944085 1.395666051 -1.167243964 2.22191468e-38
-3.059893968 1.418388319 -1.170522739 2.22191468e-38
